0.966667 0.933333 25.45 0.612907 -0.451424 0.648508
0.966667 1 23.8 0.738158 0.314487 -0.596842
0.966667 1 25.5 0.625339 -0.451962 0.636145
0.966667 1.06667 23.85 0.773994 0.363841 -0.518221
0.966667 1.06667 25.5 0.653875 -0.417829 0.630767
0.966667 1.13333 23.9 0.786817 0.37821 -0.487726
0.966667 1.13333 23.95 0.794167 0.365478 -0.485516
0.966667 1.13333 25.55 0.679584 -0.386533 0.623504
0.966667 1.13333 25.6 0.702088 -0.399338 0.589578
0.966667 1.2 24 0.779464 0.380951 -0.497305
0.966667 1.2 25.65 0.758547 -0.323086 0.565881
0.966667 1.26667 24 0.785324 0.390369 -0.480498
0.966667 1.26667 25.65 0.712459 -0.317782 0.625633
0.966667 1.33333 24.05 0.777631 0.384311 -0.497589
0.966667 1.33333 24.1 0.785307 0.37185 -0.494996
0.966667 1.33333 25.7 0.717856 -0.280986 0.636969
0.966667 1.4 24.15 0.76474 0.385816 -0.516061
0.966667 1.4 25.7 0.705351 -0.271896 0.654639
0.966667 1.46667 24.15 0.766118 0.361336 -0.531507
0.966667 1.46667 25.75 0.675526 -0.300752 0.673211
0.966667 1.53333 24.2 0.74564 0.346661 -0.569075
0.966667 1.53333 25.75 0.676548 -0.339317 0.653565
0.966667 1.6 24.25 0.724164 0.386774 -0.570958
0.966667 1.6 25.8 0.6607 -0.352544 0.662713
0.966667 1.66667 24.3 0.706868 0.415833 -0.572207
0.966667 1.66667 25.85 0.692888 -0.304488 0.653601
0.966667 1.73333 24.3 0.730946 0.427342 -0.532069
0.966667 1.73333 24.35 0.682118 0.431386 -0.590441
0.966667 1.73333 25.9 0.762618 -0.266678 0.589318
0.966667 1.8 24.4 0.666983 0.43804 -0.602706
0.966667 1.8 25.9 0.741991 -0.262527 0.61687
0.966667 1.8 25.95 0.814594 -0.255379 0.520787
0.966667 1.86667 24.4 0.702075 0.440103 -0.559821
0.966667 1.86667 24.45 0.648675 0.444097 -0.618061
0.966667 1.86667 25.9 0.754199 -0.249562 0.607374
0.966667 1.93333 24.45 0.671006 0.441802 -0.59545
0.966667 1.93333 24.5 0.61434 0.464164 -0.638073
0.966667 1.93333 25.95 0.761018 -0.32808 0.559656
0.966667 2 24.55 0.616869 0.511472 -0.598221
0.966667 2 26 0.753409 -0.406473 0.51687
0.966667 2.06667 24.55 0.680005 0.434752 -0.59041
0.966667 2.06667 26.05 0.711807 -0.480957 0.511869
0.966667 2.13333 24.6 0.741832 0.417415 -0.524833
0.966667 2.13333 24.65 0.569126 0.607614 -0.553986
0.966667 2.13333 24.7 0.574646 0.610708 -0.54481
0.966667 2.13333 26.1 0.683342 -0.511212 0.521254
0.966667 2.2 24.75 0.529223 0.612411 -0.587261
0.966667 2.2 26.15 0.704333 -0.481355 0.52174
0.966667 2.2 26.2 0.701182 -0.474704 0.531978
0.966667 2.26667 24.8 0.51574 0.568409 -0.641033
0.966667 2.26667 26.25 0.748555 -0.391474 0.535176
0.966667 2.26667 26.3 0.826705 -0.313324 0.467319
0.966667 2.33333 24.85 0.494882 0.550688 -0.672186
0.966667 2.33333 26.35 0.836468 -0.253351 0.485936
0.966667 2.4 24.9 0.522771 0.524176 -0.672272
0.966667 2.4 26.35 0.788546 -0.302276 0.535561
0.966667 2.46667 24.95 0.533469 0.524189 -0.663805
0.966667 2.46667 25 0.501713 0.556071 -0.662623
0.966667 2.46667 26.3 0.828456 -0.22761 0.511717
0.966667 2.53333 25.05 0.490207 0.589954 -0.641601
0.966667 2.53333 26.35 0.820848 -0.271974 0.502234
0.966667 2.53333 26.4 0.778876 -0.333284 0.531295
0.966667 2.6 25.1 0.469912 0.613252 -0.634906
0.966667 2.6 26.45 0.755497 -0.407512 0.512989
0.966667 2.66667 25.15 0.471086 0.600426 -0.646194
0.966667 2.66667 25.2 0.495821 0.60981 -0.618299
0.966667 2.66667 26.5 0.728435 -0.476232 0.49253
0.966667 2.73333 25.25 0.52088 0.61696 -0.589953
0.966667 2.73333 26.55 0.753721 -0.458899 0.470443
0.966667 2.73333 26.6 0.750574 -0.472776 0.46165
0.966667 2.8 25.3 0.537759 0.596747 -0.595574
0.966667 2.8 26.65 0.76514 -0.468569 0.441591
0.966667 2.8 26.7 0.805118 -0.432077 0.406318
0.966667 2.86667 25.35 0.590868 0.541663 -0.597893
0.966667 2.86667 26.75 0.78752 -0.457941 0.412434
0.966667 2.93333 25.4 0.622769 0.504974 -0.597628
0.966667 2.93333 25.45 0.558966 0.55857 -0.612826
0.966667 2.93333 26.8 0.76001 -0.447367 0.471432
0.966667 2.93333 26.85 0.796248 -0.393557 0.459457
0.966667 3 25.5 0.535574 0.561892 -0.630427
0.966667 3 26.85 0.760922 -0.404258 0.507517
0.966667 3.06667 25.55 0.529539 0.59088 -0.608646
0.966667 3.06667 26.9 0.773113 -0.389978 0.500214
0.966667 3.13333 25.6 0.554904 0.584865 -0.59162
0.966667 3.13333 26.95 0.786124 -0.415251 0.457795
0.966667 3.2 25.65 0.577274 0.56933 -0.585336
0.966667 3.2 25.7 0.471132 0.618707 -0.628678
0.966667 3.2 27 0.755956 -0.497166 0.42586
0.966667 3.2 27.05 0.735319 -0.557338 0.38559
0.966667 3.26667 25.75 0.519077 0.604693 -0.604074
0.966667 3.26667 27.1 0.694546 -0.597881 0.400181
0.966667 3.26667 27.15 0.707572 -0.597252 0.377667
0.966667 3.26667 27.2 0.735223 -0.54431 0.403948
0.966667 3.33333 25.8 0.549849 0.580549 -0.600524
0.966667 3.33333 27.25 0.703715 -0.539981 0.461741
0.966667 3.4 25.85 0.63097 0.529743 -0.566789
0.966667 3.4 25.9 0.594547 0.610342 -0.523446
0.966667 3.4 27.3 0.699369 -0.535389 0.473542
0.966667 3.46667 25.95 0.67427 0.577962 -0.459695
0.966667 3.46667 26 0.62185 0.637486 -0.454879
0.966667 3.46667 26.05 0.638516 0.625326 -0.448626
0.966667 3.46667 27.35 0.706628 -0.510867 0.489582
0.966667 3.46667 27.4 0.713668 -0.519488 0.469905
0.966667 3.46667 27.45 0.767909 -0.426381 0.478031
0.966667 3.53333 26.1 0.646323 0.647527 -0.403702
0.966667 3.53333 27.45 0.684695 -0.522817 0.507795
0.966667 3.6 26.15 0.702187 0.597582 -0.387078
0.966667 3.6 26.2 0.650156 0.660117 -0.376222
0.966667 3.6 26.25 0.690077 0.661481 -0.293659
0.966667 3.6 27.5 0.606292 -0.53507 0.588311
0.966667 3.6 27.55 0.563869 -0.500593 0.656855
0.966667 3.66667 26.3 0.799404 0.571593 -0.185026
0.966667 3.66667 26.35 0.775551 0.600555 -0.194565
0.966667 3.66667 26.4 0.779262 0.583377 -0.228958
0.966667 3.66667 26.45 0.805868 0.527235 -0.269444
0.966667 3.66667 27.6 0.512528 -0.508103 0.692204
0.966667 3.73333 26.5 0.828945 0.434163 -0.352637
0.966667 3.73333 27.6 0.513334 -0.519983 0.682719
0.966667 3.8 26.55 0.801815 0.365419 -0.472823
0.966667 3.8 27.65 0.447028 -0.533748 0.717829
0.966667 3.8 27.7 0.42185 -0.519328 0.743196
0.966667 3.86667 26.6 0.689267 0.350751 -0.633944
0.966667 3.86667 27.75 0.382168 -0.511214 0.76981
0.966667 3.93333 26.65 0.574608 0.380837 -0.724422
0.966667 3.93333 27.8 0.347485 -0.500128 0.793175
0.966667 4 26.7 0.490907 0.419506 -0.763561
0.966667 4 27.8 0.289738 -0.473333 0.83187
0.966667 4.06667 26.7 0.492022 0.443649 -0.749059
0.966667 4.06667 27.85 0.241608 -0.454833 0.857177
0.966667 4.13333 26.75 0.432979 0.466307 -0.771419
0.966667 4.13333 27.9 0.24038 -0.436666 0.866915
0.966667 4.2 26.8 0.388942 0.491277 -0.77934
0.966667 4.2 27.9 0.17624 -0.439577 0.880745
0.966667 4.26667 26.85 0.387024 0.47715 -0.789012
0.966667 4.26667 27.95 0.183182 -0.428022 0.885009
0.966667 4.33333 26.9 0.370027 0.469045 -0.801921
0.966667 4.33333 27.95 0.173156 -0.416114 0.892674
0.966667 4.4 26.95 0.377922 0.46756 -0.799102
0.966667 4.4 28 0.135598 -0.422483 0.89617
0.966667 4.46667 26.95 0.380648 0.447094 -0.809453
0.966667 4.46667 28.05 0.160187 -0.403562 0.900821
0.966667 4.53333 27 0.365568 0.431648 -0.824646
0.966667 4.53333 28.05 0.147573 -0.39146 0.908285
0.966667 4.6 27.05 0.381495 0.42728 -0.81969
0.966667 4.6 28.1 0.120011 -0.364031 0.923623
0.966667 4.66667 27.05 0.362378 0.448574 -0.816984
0.966667 4.66667 28.1 0.116518 -0.305416 0.945063
0.966667 4.73333 27.1 0.344445 0.452847 -0.822367
0.966667 4.73333 28.1 0.0634522 -0.270099 0.96074
0.966667 4.8 27.15 0.351481 0.466882 -0.811469
0.966667 4.8 28.15 0.0318474 -0.24521 0.968947
0.966667 4.86667 27.2 0.331778 0.491557 -0.805168
0.966667 4.86667 28.15 0.016058 -0.227635 0.973614
0.966667 4.93333 27.2 0.340064 0.494033 -0.80018
0.966667 4.93333 28.2 -0.0279794 -0.212377 0.976787
0.966667 5 27.25 0.283401 0.48519 -0.827209
0.966667 5 28.2 -0.0887329 -0.219923 0.971473
0.966667 5.06667 27.3 0.256804 0.496562 -0.829143
0.966667 5.06667 28.2 -0.134501 -0.27501 0.951987
0.966667 5.13333 27.35 0.206341 0.503395 -0.839057
0.966667 5.13333 28.2 -0.184767 -0.296254 0.937067
0.966667 5.2 27.35 0.190882 0.51763 -0.83404
0.966667 5.2 28.25 -0.139483 -0.283985 0.948629
0.966667 5.26667 27.4 0.114335 0.533468 -0.838057
0.966667 5.26667 28.3 -0.237514 -0.316944 0.918223
0.966667 5.33333 27.45 0.0699457 0.55167 -0.831125
0.966667 5.33333 28.3 -0.237769 -0.276278 0.931202
0.966667 5.4 27.5 0.00422407 0.553419 -0.832892
0.966667 5.4 28.3 -0.216102 -0.232086 0.948386
0.966667 5.46667 27.55 -0.0610866 0.55497 -0.829625
0.966667 5.46667 28.35 -0.268821 -0.207332 0.940611
0.966667 5.53333 27.6 -0.151203 0.574833 -0.80418
0.966667 5.53333 28.35 -0.251183 -0.222416 0.94204
0.966667 5.6 27.65 -0.222336 0.581725 -0.782409
0.966667 5.6 28.35 -0.27949 -0.255435 0.925548
0.966667 5.66667 27.65 -0.286682 0.556946 -0.779503
0.966667 5.66667 27.7 -0.335094 0.584977 -0.738589
0.966667 5.66667 28.35 -0.373388 -0.294013 0.879851
0.966667 5.73333 27.75 -0.413848 0.58888 -0.694227
0.966667 5.73333 28.4 -0.340824 -0.340085 0.876459
0.966667 5.8 27.8 -0.507088 0.58828 -0.629912
0.966667 5.8 28.4 -0.391246 -0.375414 0.840233
0.966667 5.86667 27.85 -0.566701 0.55408 -0.609792
0.966667 5.86667 27.9 -0.583262 0.574827 -0.573916
0.966667 5.86667 28.45 -0.407453 -0.40946 0.816287
0.966667 5.93333 27.95 -0.614808 0.534429 -0.579997
0.966667 5.93333 28 -0.69153 0.48566 -0.534715
0.966667 5.93333 28.5 -0.534297 -0.378716 0.755712
0.966667 6 28.05 -0.735214 0.469071 -0.489319
0.966667 6 28.55 -0.676867 -0.349441 0.647875
0.966667 6.06667 28.05 -0.726983 0.451645 -0.517217
0.966667 6.06667 28.55 -0.688534 -0.376065 0.620078
0.966667 6.13333 28.1 -0.756855 0.419161 -0.501472
0.966667 6.13333 28.15 -0.762512 0.429801 -0.483577
0.966667 6.13333 28.6 -0.703409 -0.424493 0.570107
0.966667 6.2 28.2 -0.769051 0.379253 -0.514518
0.966667 6.2 28.65 -0.691762 -0.490326 0.530137
0.966667 6.26667 28.25 -0.792341 0.330751 -0.51264
0.966667 6.26667 28.7 -0.573087 -0.570978 0.58784
0.966667 6.26667 28.75 -0.507814 -0.583295 0.633949
0.966667 6.26667 28.8 -0.619196 -0.483066 0.619067
0.966667 6.33333 28.25 -0.80293 0.288315 -0.521707
0.966667 6.33333 28.85 -0.5944 -0.408028 0.692966
0.966667 6.4 28.3 -0.805882 0.248016 -0.537627
0.966667 6.4 28.85 -0.419828 -0.424109 0.802419
0.966667 6.46667 28.35 -0.806451 0.253053 -0.534417
0.966667 6.46667 28.9 -0.736713 -0.185115 0.650375
0.966667 6.53333 28.35 -0.789877 0.335662 -0.513249
0.966667 6.53333 28.9 -0.712538 0.0513931 0.699749
0.966667 6.6 28.4 -0.749014 0.409014 -0.521235
0.966667 6.6 28.9 -0.698127 0.28061 0.658694
0.966667 6.66667 28.45 -0.704574 0.514349 -0.488898
0.966667 6.66667 28.85 -0.545455 0.428375 0.720398
0.966667 6.73333 28.45 -0.825666 0.39957 -0.398272
0.966667 6.73333 28.5 -0.704399 0.584253 -0.403076
0.966667 6.73333 28.55 -0.637181 0.685037 -0.353164
0.966667 6.73333 28.6 -0.600705 0.753242 -0.267916
0.966667 6.73333 28.65 -0.64992 0.749662 -0.124947
0.966667 6.73333 28.8 -0.60744 0.513036 0.606474
0.966667 6.8 28.7 -0.830108 0.548706 0.0992075
0.966667 6.8 28.75 -0.841963 0.379696 0.383313
1 -4.93333 23.1 0.697732 -0.666847 -0.261696
1 -4.93333 23.15 0.61885 -0.754557 -0.218333
1 -4.93333 23.2 0.530224 -0.838476 -0.125782
1 -4.93333 23.25 0.419448 -0.903022 -0.0928174
1 -4.93333 23.3 0.322212 -0.944203 -0.068261
1 -4.93333 23.35 0.256737 -0.965586 -0.0415815
1 -4.93333 23.4 0.175992 -0.983185 -0.048723
1 -4.93333 23.45 0.0854239 -0.995166 -0.0484443
1 -4.93333 23.5 -0.0115626 -0.999007 0.0430401
1 -4.93333 23.55 -0.123274 -0.982414 0.140237
1 -4.93333 23.6 -0.225347 -0.95546 0.190565
1 -4.93333 23.7 -0.427819 -0.843799 0.323996
1 -4.93333 23.75 -0.67324 -0.661183 0.331034
1 -4.86667 23 0.65327 -0.653318 -0.38264
1 -4.86667 23.05 0.60494 -0.720443 -0.339131
1 -4.86667 23.65 -0.345512 -0.890178 0.296992
1 -4.86667 23.8 -0.49694 -0.792519 0.353504
1 -4.86667 23.85 -0.563681 -0.698115 0.441474
1 -4.8 22.9 0.66246 -0.586614 -0.465865
1 -4.8 22.95 0.628703 -0.628212 -0.458348
1 -4.8 23.9 -0.508678 -0.69785 0.504234
1 -4.8 23.95 -0.564198 -0.626511 0.53774
1 -4.73333 22.85 0.674399 -0.537705 -0.506022
1 -4.73333 24 -0.489267 -0.649923 0.581565
1 -4.66667 22.75 0.729957 -0.475335 -0.491141
1 -4.66667 22.8 0.70005 -0.492102 -0.51746
1 -4.66667 24.05 -0.515961 -0.593396 0.617791
1 -4.6 22.7 0.734876 -0.464809 -0.493873
1 -4.6 24.1 -0.728387 -0.34952 0.589311
1 -4.6 24.15 -0.828978 -0.217062 0.515442
1 -4.53333 22.65 0.726673 -0.465882 -0.504876
1 -4.53333 24.2 -0.979949 0.0304366 0.196913
1 -4.53333 24.25 -0.993993 0.0941512 0.0558023
1 -4.46667 22.55 0.725326 -0.434294 -0.534126
1 -4.46667 22.6 0.707625 -0.461024 -0.535466
1 -4.46667 24.2 -0.935552 0.0279719 0.352078
1 -4.46667 24.25 -0.980216 -0.132342 0.147181
1 -4.4 22.55 0.703864 -0.442204 -0.555906
1 -4.4 24.05 -0.62903 0.51209 0.584881
1 -4.4 24.1 -0.697662 0.416373 0.58301
1 -4.4 24.15 -0.825745 0.222385 0.518354
1 -4.33333 22.5 0.689179 -0.43625 -0.578548
1 -4.33333 24 -0.462884 0.729151 0.50406
1 -4.26667 22.45 0.685387 -0.433699 -0.584935
1 -4.26667 23.85 -0.492049 0.767499 0.410893
1 -4.26667 23.9 -0.425317 0.763032 0.486711
1 -4.26667 23.95 -0.47599 0.735508 0.482142
1 -4.2 22.4 0.672961 -0.454285 -0.583737
1 -4.2 23.2 0.6606 0.700332 0.270449
1 -4.2 23.3 0.433677 0.889328 0.14498
1 -4.2 23.35 0.413128 0.909637 0.0434237
1 -4.2 23.4 0.427702 0.903672 -0.0211565
1 -4.2 23.5 0.331129 0.938216 -0.100523
1 -4.2 23.6 0.0820772 0.996013 0.0349411
1 -4.2 23.7 -0.220597 0.940382 0.258882
1 -4.2 23.75 -0.344892 0.872045 0.347257
1 -4.2 23.8 -0.416961 0.830791 0.368687
1 -4.13333 22.3 0.977507 -0.082034 -0.194292
1 -4.13333 22.35 0.967365 -0.0722122 -0.242878
1 -4.13333 23.1 0.516253 0.778211 0.357589
1 -4.13333 23.15 0.447782 0.838435 0.310674
1 -4.13333 23.25 0.408591 0.890186 0.201548
1 -4.13333 23.45 0.425139 0.900825 -0.088152
1 -4.13333 23.55 0.229207 0.97305 -0.0252423
1 -4.13333 23.65 -0.110498 0.982482 0.150063
1 -4.06667 22.25 0.948406 0.0284521 -0.315778
1 -4.06667 22.95 0.555278 0.758356 0.341413
1 -4.06667 23 0.520066 0.774795 0.359478
1 -4.06667 23.05 0.518684 0.765564 0.380629
1 -4 22.2 0.971034 0.0157034 -0.238423
1 -4 22.25 0.920918 -0.0391914 -0.38778
1 -4 22.7 0.33676 0.900726 0.274383
1 -4 22.75 0.386812 0.885987 0.255742
1 -4 22.8 0.4479 0.858691 0.24907
1 -4 22.85 0.508475 0.826535 0.24144
1 -4 22.9 0.574697 0.768783 0.280529
1 -3.93333 22.25 0.878495 -0.137988 -0.45739
1 -3.93333 22.3 0.916863 -0.0137737 -0.398964
1 -3.93333 22.35 0.962105 0.105176 -0.251578
1 -3.93333 22.4 0.973552 0.198496 -0.113114
1 -3.93333 22.45 0.893194 0.43789 -0.102262
1 -3.93333 22.5 0.764556 0.642153 -0.0556331
1 -3.93333 22.55 0.651982 0.758015 0.0182377
1 -3.93333 22.6 0.422034 0.900827 0.101968
1 -3.93333 22.65 0.230158 0.941841 0.244874
1 -3.86667 22.2 0.798195 -0.327068 -0.505877
1 -3.86667 22.25 0.878687 -0.131212 -0.459013
1 -1.53333 23.1 0.962155 -0.262532 -0.0730347
1 -1.53333 23.15 0.959267 -0.274708 -0.0659001
1 -1.53333 23.3 0.951861 -0.306037 0.0173728
1 -1.53333 23.35 0.947178 -0.315819 0.0557875
1 -1.53333 23.4 0.945608 -0.314197 0.0842934
1 -1.46667 23.1 0.973863 -0.21442 -0.0749357
1 -1.46667 23.15 0.972591 -0.225627 -0.0562046
1 -1.46667 23.2 0.972633 -0.229693 -0.0350004
1 -1.46667 23.25 0.972552 -0.232661 -0.00335745
1 -1.46667 23.3 0.966309 -0.257028 0.0135114
1 -1.46667 23.35 0.956523 -0.289631 0.0343207
1 -1.46667 23.4 0.948069 -0.312152 0.0610515
1 -1.46667 23.45 0.937181 -0.330904 0.110426
1 -1.4 23.1 0.981332 -0.173833 -0.0822775
1 -1.4 23.15 0.981995 -0.181504 -0.0523559
1 -1.4 23.2 0.983803 -0.176803 -0.029523
1 -1.4 23.25 0.984034 -0.177456 -0.0136263
1 -1.4 23.3 0.979163 -0.202359 -0.0170338
1 -1.4 23.35 0.969519 -0.244834 -0.00946097
1 -1.4 23.4 0.959632 -0.280789 0.0162658
1 -1.4 23.45 0.946706 -0.314348 0.0702381
1 -1.4 23.5 0.928634 -0.354193 0.110395
1 -1.4 23.55 0.906444 -0.388823 0.164852
1 -1.4 23.6 0.889249 -0.416229 0.189711
1 -1.4 23.65 0.887248 -0.416978 0.197282
1 -1.33333 22.85 0.977562 -0.0784128 -0.195507
1 -1.33333 22.9 0.985945 -0.10832 -0.127195
1 -1.33333 22.95 0.981502 -0.121918 -0.147611
1 -1.33333 23 0.981846 -0.136497 -0.131705
1 -1.33333 23.05 0.981904 -0.144342 -0.122596
1 -1.33333 23.7 0.87569 -0.441423 0.195735
1 -1.33333 23.75 0.876429 -0.433455 0.209734
1 -1.33333 23.8 0.890838 -0.39375 0.226646
1 -1.26667 22.85 0.97253 -0.0669607 -0.222937
1 -1.26667 22.9 0.98266 -0.0933242 -0.160221
1 -1.26667 22.95 0.980184 -0.104524 -0.168265
1 -1.26667 23.85 0.873245 -0.431234 0.226895
1 -1.2 22.85 0.967495 -0.0431502 -0.249181
1 -1.2 22.9 0.979596 -0.0614093 -0.191365
1 -1.2 22.95 0.979753 -0.0672914 -0.188562
1 -1.2 23.9 0.865148 -0.446415 0.228542
1 -1.2 23.95 0.85177 -0.467677 0.236149
1 -1.13333 22.85 0.960158 -0.0149369 -0.279057
1 -1.13333 22.9 0.974804 -0.0216854 -0.222009
1 -1.13333 22.95 0.978228 -0.0190396 -0.206657
1 -1.13333 24 0.835468 -0.490196 0.248398
1 -1.13333 24.05 0.817338 -0.518073 0.252109
1 -1.13333 24.1 0.818853 -0.499393 0.282996
1 -1.06667 22.85 0.956012 -0.0123561 -0.293068
1 -1.06667 22.9 0.970816 -0.012434 -0.239504
1 -1.06667 22.95 0.976803 -0.012607 -0.213769
1 -1.06667 24.15 0.719301 -0.59803 0.353506
1 -1.06667 24.2 0.719063 -0.575579 0.389432
1 -1 22.85 0.954263 -0.0147866 -0.298602
1 -1 22.9 0.969981 -0.0149116 -0.242725
1 -1 22.95 0.976675 -0.015144 -0.214187
1 -1 24.25 0.638582 -0.622472 0.452484
1 -1 24.3 0.648657 -0.572963 0.500955
1 -0.933333 22.85 0.952524 -0.0147441 -0.304107
1 -0.933333 22.9 0.969163 -0.0149034 -0.245972
1 -0.933333 24.35 0.574718 -0.615702 0.539083
1 -0.866667 22.85 0.950793 -0.01225 -0.309584
1 -0.866667 22.9 0.968361 -0.0124135 -0.249244
1 -0.866667 24.4 0.531168 -0.596372 0.601831
1 -0.866667 24.45 0.554162 -0.532168 0.64008
1 -0.8 22.85 0.94906 -0.00732972 -0.31501
1 -0.8 22.9 0.967562 -0.00744432 -0.252524
1 -0.8 24.5 0.447139 -0.51723 0.729754
1 -0.733333 22.85 0.947303 -0 -0.320338
1 -0.733333 22.9 0.964133 -0.00742491 -0.265316
1 -0.733333 24.55 0.361691 -0.496783 0.788914
1 -0.666667 22.85 0.947303 3.65311e-09 -0.320338
1 -0.666667 22.9 0.964144 -0.00495029 -0.265334
1 -0.666667 24.55 0.311671 -0.497049 0.809817
1 -0.6 22.85 0.944721 -0.0364338 -0.325846
1 -0.6 22.9 0.959258 -0.0396048 -0.279742
1 -0.6 24.6 0.296396 -0.478558 0.826518
1 -0.533333 22.85 0.94149 -0.0459472 -0.333895
1 -0.533333 22.9 0.955505 -0.0543814 -0.289918
1 -0.533333 24.65 0.28267 -0.471621 0.835268
1 -0.466667 22.85 0.938717 -0.0337794 -0.34303
1 -0.466667 22.9 0.950845 -0.0443883 -0.306468
1 -0.466667 24.7 0.289367 -0.471286 0.83316
1 -0.4 22.8 0.929618 0.0146869 -0.368232
1 -0.4 22.85 0.936731 -0.00482498 -0.350016
1 -0.4 24.7 0.321253 -0.428146 0.844682
1 -0.333333 22.8 0.926929 0.0515986 -0.371672
1 -0.333333 22.85 0.935694 0.036224 -0.350948
1 -0.333333 24.75 0.407577 -0.357291 0.840371
1 -0.266667 22.85 0.928384 0.0839796 -0.36201
1 -0.266667 22.9 0.935562 0.072581 -0.345624
1 -0.266667 24.8 0.542149 -0.305607 0.782738
1 -0.2 22.85 0.920871 0.126175 -0.368884
1 -0.2 22.9 0.927655 0.119028 -0.35396
1 -0.2 24.8 0.466137 -0.275068 0.840865
1 -0.133333 22.9 0.9245 0.13514 -0.356424
1 -0.133333 22.95 0.92121 0.133964 -0.365275
1 -0.133333 24.8 0.503057 -0.233678 0.832063
1 -0.0666667 22.9 0.919797 0.183337 -0.34693
1 -0.0666667 22.95 0.916231 0.181846 -0.357007
1 -0.0666667 24.85 0.638277 -0.183372 0.747648
1 0 22.95 0.909182 0.244318 -0.337189
1 0 24.85 0.696705 -0.158763 0.699569
1 0.0666667 22.95 0.91082 0.273386 -0.309301
1 0.0666667 23 0.90843 0.308327 -0.282292
1 0.0666667 23.05 0.905316 0.324898 -0.273576
1 0.0666667 24.85 0.718018 -0.148916 0.679907
1 0.133333 23.05 0.919284 0.307 -0.246309
1 0.133333 23.1 0.910242 0.314081 -0.269837
1 0.133333 23.15 0.906832 0.314777 -0.280305
1 0.133333 23.2 0.903311 0.316774 -0.28928
1 0.133333 24.85 0.746786 -0.143668 0.649361
1 0.2 23.25 0.918237 0.26419 -0.295033
1 0.2 24.9 0.742936 -0.239987 0.624862
1 0.266667 23.3 0.940351 0.173852 -0.292431
1 0.266667 23.35 0.95638 0.14345 -0.254478
1 0.266667 24.9 0.749606 -0.309398 0.585119
1 0.333333 23.25 0.918954 0.234192 -0.317297
1 0.333333 23.3 0.920321 0.204114 -0.333685
1 0.333333 23.35 0.934823 0.175383 -0.308784
1 0.333333 24.95 0.737947 -0.380541 0.557336
1 0.4 23.25 0.93752 0.211069 -0.276598
1 0.4 23.3 0.926915 0.215325 -0.307349
1 0.4 25 0.723279 -0.427701 0.542162
1 0.466667 23.25 0.971716 0.0779237 -0.222924
1 0.466667 23.3 0.941065 0.209744 -0.265339
1 0.466667 25.05 0.70134 -0.467094 0.538466
1 0.466667 25.1 0.682112 -0.45663 0.57115
1 0.533333 23.25 0.979607 -0.127235 -0.155502
1 0.533333 23.3 0.971659 0.0936493 -0.217046
1 0.533333 23.35 0.948278 0.229414 -0.219404
1 0.533333 23.4 0.921104 0.344973 -0.180447
1 0.533333 23.45 0.900399 0.415159 -0.130094
1 0.533333 23.5 0.883227 0.454654 -0.114891
1 0.533333 23.55 0.874874 0.454394 -0.167695
1 0.533333 23.6 0.86139 0.445203 -0.244543
1 0.533333 23.65 0.808091 0.404087 -0.428606
1 0.533333 25.15 0.678154 -0.428971 0.596733
1 0.6 23.7 0.746053 0.375814 -0.549698
1 0.6 25.2 0.692189 -0.391721 0.606159
1 0.666667 23.7 0.742628 0.333619 -0.580691
1 0.666667 25.25 0.698603 -0.36511 0.615344
1 0.733333 23.75 0.725734 0.266286 -0.634352
1 0.733333 25.25 0.67922 -0.397842 0.616751
1 0.8 23.75 0.716617 0.249278 -0.651399
1 0.8 25.3 0.677851 -0.418262 0.604628
1 0.866667 23.8 0.719636 0.268363 -0.640395
1 0.866667 25.35 0.669756 -0.425627 0.608498
1 0.933333 23.8 0.731459 0.2819 -0.620887
1 0.933333 25.4 0.666305 -0.426202 0.611874
1 0.933333 25.45 0.699095 -0.380412 0.605436
1 1 23.85 0.751062 0.35738 -0.555144
1 1 25.45 0.667089 -0.418499 0.61632
1 1.06667 23.9 0.776621 0.377056 -0.504666
1 1.06667 25.5 0.671192 -0.421296 0.609927
1 1.13333 23.95 0.777571 0.389771 -0.493418
1 1.13333 24 0.788659 0.373456 -0.488413
1 1.13333 25.55 0.729351 -0.374567 0.572491
1 1.2 24 0.788345 0.391294 -0.474764
1 1.2 25.6 0.763125 -0.306973 0.568689
1 1.26667 24.05 0.781981 0.385706 -0.48963
1 1.26667 24.1 0.783088 0.373267 -0.497438
1 1.26667 25.65 0.789686 -0.274663 0.548595
1 1.33333 24.15 0.769808 0.370983 -0.519391
1 1.33333 25.65 0.749094 -0.264121 0.607534
1 1.4 24.15 0.779576 0.358028 -0.513884
1 1.4 24.2 0.762714 0.358036 -0.538588
1 1.4 25.65 0.764454 -0.253335 0.592816
1 1.46667 24.2 0.763512 0.34177 -0.547944
1 1.46667 25.7 0.728208 -0.295328 0.618462
1 1.53333 24.25 0.75874 0.335515 -0.55834
1 1.53333 25.75 0.727125 -0.308453 0.613308
1 1.6 24.3 0.744489 0.363124 -0.560247
1 1.6 25.8 0.752633 -0.283046 0.594499
1 1.66667 24.35 0.736918 0.382509 -0.557349
1 1.66667 25.85 0.79399 -0.232096 0.561881
1 1.73333 24.4 0.72716 0.383578 -0.569304
1 1.73333 25.85 0.767126 -0.236508 0.596307
1 1.8 24.4 0.735119 0.401765 -0.546063
1 1.8 24.45 0.724862 0.390369 -0.567615
1 1.8 25.85 0.763727 -0.223215 0.605719
1 1.86667 24.5 0.709192 0.396168 -0.58318
1 1.86667 25.85 0.782474 -0.209866 0.586251
1 1.93333 24.5 0.707263 0.415736 -0.571789
1 1.93333 25.9 0.775885 -0.310189 0.54935
1 2 24.55 0.712919 0.441925 -0.544472
1 2 25.95 0.759441 -0.408013 0.50673
1 2.06667 24.6 0.699669 0.480065 -0.529151
1 2.06667 24.65 0.653252 0.535313 -0.535445
1 2.06667 26 0.729117 -0.481454 0.486405
1 2.13333 24.7 0.641204 0.574086 -0.509198
1 2.13333 26.05 0.720243 -0.498336 0.482608
1 2.13333 26.1 0.709251 -0.493446 0.503462
1 2.2 24.75 0.639226 0.553505 -0.533874
1 2.2 24.8 0.593166 0.547387 -0.590357
1 2.2 26.15 0.739226 -0.450334 0.500744
1 2.2 26.2 0.789107 -0.393924 0.471311
1 2.26667 24.85 0.576121 0.525127 -0.62636
1 2.26667 26.25 0.835753 -0.286816 0.468245
1 2.33333 24.9 0.574116 0.535209 -0.619631
1 2.33333 26.3 0.848571 -0.230941 0.476018
1 2.4 24.95 0.58284 0.526917 -0.618591
1 2.4 26.25 0.826133 -0.242159 0.508786
1 2.4 26.3 0.83102 -0.259396 0.492057
1 2.46667 25 0.576182 0.53443 -0.618385
1 2.46667 26.35 0.821839 -0.26331 0.505222
1 2.53333 25.05 0.577981 0.542767 -0.609378
1 2.53333 26.35 0.811988 -0.316024 0.490719
1 2.6 25.1 0.55693 0.561136 -0.612336
1 2.6 25.15 0.533989 0.590818 -0.604806
1 2.6 26.4 0.784797 -0.390787 0.481019
1 2.66667 25.2 0.550418 0.594392 -0.586292
1 2.66667 26.45 0.777776 -0.421675 0.466106
1 2.66667 26.5 0.811999 -0.410713 0.414696
1 2.73333 25.25 0.611533 0.568756 -0.55004
1 2.73333 26.55 0.807158 -0.419306 0.415546
1 2.8 25.3 0.673532 0.514316 -0.53088
1 2.8 25.35 0.65829 0.516025 -0.548063
1 2.8 26.6 0.822749 -0.405619 0.398192
1 2.8 26.65 0.856689 -0.381618 0.34706
1 2.86667 25.4 0.675143 0.497027 -0.54511
1 2.86667 26.65 0.836457 -0.408346 0.365503
1 2.86667 26.7 0.851871 -0.398172 0.340258
1 2.93333 25.45 0.728237 0.458872 -0.509027
1 2.93333 26.7 0.844984 -0.399878 0.355105
1 2.93333 26.75 0.83609 -0.402786 0.372447
1 2.93333 26.8 0.848793 -0.358445 0.388673
1 3 25.5 0.75754 0.436774 -0.485141
1 3 25.55 0.723291 0.476984 -0.499335
1 3 26.85 0.84823 -0.323553 0.419308
1 3.06667 25.6 0.685396 0.510288 -0.51946
1 3.06667 26.85 0.825648 -0.337357 0.452213
1 3.13333 25.6 0.770242 0.435955 -0.465479
1 3.13333 25.65 0.682088 0.525354 -0.508684
1 3.13333 25.7 0.657146 0.516792 -0.548712
1 3.13333 26.9 0.841251 -0.340257 0.420147
1 3.13333 26.95 0.866818 -0.348379 0.356733
1 3.2 25.75 0.655551 0.545164 -0.522541
1 3.2 26.9 0.844582 -0.37418 0.382977
1 3.2 26.95 0.81848 -0.435613 0.374609
1 3.26667 25.75 0.724136 0.485415 -0.489897
1 3.26667 25.8 0.653161 0.54936 -0.521137
1 3.26667 27 0.79895 -0.485449 0.35499
1 3.26667 27.05 0.769307 -0.548495 0.327598
1 3.26667 27.1 0.763825 -0.546203 0.34385
1 3.33333 25.8 0.748596 0.448042 -0.488735
1 3.33333 25.85 0.669457 0.544307 -0.505527
1 3.33333 25.9 0.689858 0.572476 -0.443134
1 3.33333 27.15 0.750052 -0.552535 0.363492
1 3.33333 27.2 0.736933 -0.528121 0.421923
1 3.33333 27.25 0.789952 -0.449835 0.416682
1 3.4 25.95 0.736087 0.560765 -0.379103
1 3.4 27.25 0.724697 -0.520879 0.451109
1 3.46667 26 0.778685 0.511731 -0.363018
1 3.46667 26.05 0.730227 0.56156 -0.389125
1 3.46667 27.3 0.745898 -0.494036 0.446727
1 3.53333 26.1 0.764028 0.542812 -0.348736
1 3.53333 26.15 0.712411 0.595186 -0.371785
1 3.53333 27.35 0.75696 -0.471935 0.451984
1 3.53333 27.4 0.731492 -0.508463 0.454296
1 3.53333 27.45 0.736839 -0.465043 0.490717
1 3.6 26.2 0.790465 0.522817 -0.319104
1 3.6 26.25 0.783207 0.567802 -0.253352
1 3.6 26.3 0.798786 0.575568 -0.175109
1 3.6 27.5 0.662096 -0.502675 0.555829
1 3.66667 26.35 0.869331 0.47286 -0.143761
1 3.66667 26.4 0.857903 0.490244 -0.153831
1 3.66667 26.45 0.861724 0.476587 -0.174061
1 3.66667 26.5 0.87993 0.418097 -0.22565
1 3.66667 26.55 0.883319 0.360857 -0.299216
1 3.66667 27.55 0.610342 -0.510606 0.60561
1 3.73333 26.55 0.877086 0.326279 -0.352509
1 3.73333 26.6 0.844755 0.287598 -0.451305
1 3.73333 27.6 0.567584 -0.519919 0.638383
1 3.8 26.6 0.819015 0.265309 -0.508749
1 3.8 27.65 0.471482 -0.534173 0.701687
1 3.86667 26.65 0.715253 0.266127 -0.646212
1 3.86667 27.7 0.43661 -0.514153 0.738254
1 3.93333 26.65 0.686935 0.322191 -0.651393
1 3.93333 27.75 0.410714 -0.498337 0.763528
1 4 26.7 0.571788 0.389614 -0.721983
1 4 27.8 0.362213 -0.470688 0.804521
1 4.06667 26.75 0.510785 0.430821 -0.743971
1 4.06667 27.85 0.348226 -0.450966 0.821808
1 4.13333 26.8 0.4649 0.451946 -0.761323
1 4.13333 27.85 0.310417 -0.444767 0.840133
1 4.2 26.8 0.494804 0.458411 -0.738261
1 4.2 27.9 0.257642 -0.448729 0.855723
1 4.26667 26.85 0.463676 0.445269 -0.765989
1 4.26667 27.95 0.255925 -0.427243 0.867159
1 4.33333 26.9 0.412001 0.444443 -0.795441
1 4.33333 27.95 0.208864 -0.418921 0.883675
1 4.4 26.95 0.383985 0.453394 -0.804357
1 4.4 28 0.173184 -0.421451 0.890161
1 4.46667 26.95 0.404368 0.44375 -0.799733
1 4.46667 28 0.203164 -0.399024 0.89415
1 4.53333 27 0.367212 0.435013 -0.822143
1 4.53333 28.05 0.182977 -0.388941 0.902909
1 4.6 27.05 0.364357 0.43014 -0.825969
1 4.6 28.1 0.18375 -0.373911 0.90908
1 4.66667 27.1 0.355146 0.450982 -0.818832
1 4.66667 28.1 0.145875 -0.320536 0.935936
1 4.73333 27.1 0.37322 0.445423 -0.813821
1 4.73333 28.15 0.137841 -0.294519 0.945652
1 4.8 27.15 0.35569 0.458386 -0.814473
1 4.8 28.15 0.112401 -0.265924 0.957419
1 4.86667 27.2 0.329415 0.483584 -0.810945
1 4.86667 28.15 0.0798949 -0.244896 0.966252
1 4.93333 27.2 0.357305 0.494502 -0.792339
1 4.93333 27.25 0.304631 0.496642 -0.81274
1 4.93333 28.15 0 -0.234437 0.972131
1 5 27.3 0.316623 0.467743 -0.825207
1 5 28.2 -0.0558704 -0.237944 0.969671
1 5.06667 27.3 0.299685 0.471972 -0.829115
1 5.06667 28.2 -0.0720834 -0.287686 0.955008
1 5.13333 27.35 0.234544 0.475846 -0.847679
1 5.13333 28.25 -0.0766358 -0.308895 0.948004
1 5.2 27.35 0.245989 0.485893 -0.838688
1 5.2 27.4 0.201426 0.476324 -0.855887
1 5.2 28.25 -0.077443 -0.28892 0.954216
1 5.26667 27.45 0.168942 0.51586 -0.839849
1 5.26667 28.3 -0.147638 -0.322538 0.934971
1 5.33333 27.45 0.12254 0.536129 -0.835195
1 5.33333 28.3 -0.162057 -0.279034 0.946508
1 5.4 27.5 0.0600336 0.550068 -0.832959
1 5.4 28.3 -0.141917 -0.253494 0.95687
1 5.46667 27.55 -0.00759902 0.545311 -0.838199
1 5.46667 28.3 -0.187982 -0.22979 0.954913
1 5.53333 27.6 -0.105373 0.560067 -0.821718
1 5.53333 28.35 -0.226751 -0.24287 0.943185
1 5.6 27.6 -0.122623 0.547093 -0.828042
1 5.6 28.35 -0.267382 -0.283867 0.920829
1 5.66667 27.65 -0.240603 0.540321 -0.806327
1 5.66667 28.35 -0.392315 -0.314665 0.864335
1 5.73333 27.7 -0.371098 0.538201 -0.756721
1 5.73333 28.4 -0.314853 -0.346288 0.883715
1 5.8 27.75 -0.486535 0.52578 -0.697738
1 5.8 27.8 -0.481413 0.569989 -0.665848
1 5.8 28.45 -0.351646 -0.385191 0.853214
1 5.86667 27.85 -0.555063 0.556597 -0.618146
1 5.86667 28.45 -0.367403 -0.428666 0.825385
1 5.93333 27.9 -0.626649 0.51383 -0.585909
1 5.93333 27.95 -0.663588 0.495057 -0.560865
1 5.93333 28.5 -0.365806 -0.445981 0.816876
1 6 28 -0.70528 0.453149 -0.545193
1 6 28.55 -0.352519 -0.485834 0.79981
1 6.06667 28.05 -0.735001 0.442751 -0.513561
1 6.06667 28.6 -0.357425 -0.543369 0.759604
1 6.13333 28.05 -0.744242 0.409231 -0.527858
1 6.13333 28.65 -0.34128 -0.613624 0.712034
1 6.2 28.1 -0.765626 0.388895 -0.512422
1 6.2 28.15 -0.760845 0.39748 -0.512957
1 6.2 28.7 -0.325393 -0.646479 0.690062
1 6.2 28.75 -0.417064 -0.607814 0.675736
1 6.26667 28.2 -0.77106 0.36064 -0.524791
1 6.26667 28.8 -0.346368 -0.593068 0.726842
1 6.33333 28.2 -0.764084 0.329691 -0.554508
1 6.33333 28.85 -0.306472 -0.49129 0.815297
1 6.4 28.25 -0.747359 0.299825 -0.592925
1 6.4 28.9 -0.41462 -0.359153 0.836122
1 6.46667 28.25 -0.763525 0.308851 -0.567133
1 6.46667 28.3 -0.742911 0.302703 -0.597038
1 6.46667 28.9 -0.39069 -0.275126 0.878446
1 6.53333 28.3 -0.726461 0.384239 -0.56975
1 6.53333 28.9 -0.469863 0.0607769 0.880645
1 6.6 28.35 -0.700287 0.43424 -0.566599
1 6.6 28.9 -0.403 0.337272 0.850787
1 6.66667 28.4 -0.66772 0.512837 -0.539582
1 6.66667 28.85 -0.325123 0.476298 0.816967
1 6.73333 28.45 -0.653731 0.605431 -0.453971
1 6.73333 28.5 -0.562484 0.712947 -0.41871
1 6.73333 28.55 -0.512415 0.780178 -0.358822
1 6.73333 28.6 -0.488125 0.835302 -0.25299
1 6.73333 28.85 -0.546285 0.451279 0.705634
1 6.8 28.65 -0.532702 0.838673 -0.11338
1 6.8 28.7 -0.658406 0.739659 0.139305
1 6.8 28.75 -0.745923 0.493475 0.447305
1 6.8 28.8 -0.87986 0.286019 0.379524
1.03333 -4.93333 23.2 0.649118 -0.74298 -0.163175
1.03333 -4.93333 23.25 0.517868 -0.848444 -0.109345
1.03333 -4.93333 23.3 0.423005 -0.903167 -0.0731795
1.03333 -4.93333 23.35 0.356583 -0.931283 -0.0745667
1.03333 -4.93333 23.4 0.255491 -0.961259 -0.103467
1.03333 -4.93333 23.45 0.186767 -0.978256 -0.0901845
1.03333 -4.93333 23.5 0.0724878 -0.997129 -0.0218845
1.03333 -4.93333 23.55 -0.059692 -0.995578 0.0725326
1.03333 -4.93333 23.6 -0.121738 -0.983924 0.130668
1.03333 -4.93333 23.65 -0.201096 -0.946799 0.25126
1.03333 -4.86667 23.05 0.644961 -0.662614 -0.380746
1.03333 -4.86667 23.1 0.611238 -0.721908 -0.324403
1.03333 -4.86667 23.15 0.597116 -0.760269 -0.25582
1.03333 -4.86667 23.7 -0.253651 -0.920961 0.29579
1.03333 -4.86667 23.75 -0.309439 -0.896524 0.317006
1.03333 -4.86667 23.8 -0.384033 -0.86238 0.329877
1.03333 -4.86667 23.85 -0.446975 -0.779845 0.438241
1.03333 -4.86667 23.9 -0.557486 -0.656283 0.508432
1.03333 -4.8 22.9 0.768106 -0.472761 -0.431869
1.03333 -4.8 22.95 0.681098 -0.572518 -0.45643
1.03333 -4.8 23 0.657173 -0.617603 -0.432078
1.03333 -4.8 23.95 -0.47481 -0.69471 0.54031
1.03333 -4.73333 22.9 0.687602 -0.532208 -0.493921
1.03333 -4.73333 24 -0.44903 -0.67171 0.589218
1.03333 -4.73333 24.05 -0.504023 -0.63549 0.584904
1.03333 -4.66667 22.8 0.733161 -0.475125 -0.48655
1.03333 -4.66667 22.85 0.707395 -0.485758 -0.513451
1.03333 -4.66667 24.1 -0.524583 -0.580874 0.622413
1.03333 -4.6 22.75 0.7208 -0.472212 -0.507409
1.03333 -4.6 24.15 -0.75986 -0.317946 0.567031
1.03333 -4.6 24.2 -0.887497 -0.12873 0.442468
1.03333 -4.53333 22.7 0.723339 -0.472562 -0.503454
1.03333 -4.53333 24.25 -0.995775 0.0281494 0.0874018
1.03333 -4.46667 22.6 0.720459 -0.446666 -0.530498
1.03333 -4.46667 22.65 0.731123 -0.460209 -0.503653
1.03333 -4.46667 24.2 -0.90282 0.113415 0.414793
1.03333 -4.46667 24.25 -0.976292 -0.0531382 0.209835
1.03333 -4.4 22.6 0.72077 -0.44106 -0.534749
1.03333 -4.4 24.15 -0.734567 0.372324 0.567262
1.03333 -4.33333 22.5 0.708137 -0.421778 -0.566256
1.03333 -4.33333 22.55 0.718047 -0.426618 -0.549914
1.03333 -4.33333 24.05 -0.450186 0.705535 0.547315
1.03333 -4.33333 24.1 -0.526018 0.624198 0.577653
1.03333 -4.26667 22.45 0.703954 -0.431088 -0.564457
1.03333 -4.26667 23.9 -0.435751 0.762706 0.477913
1.03333 -4.26667 23.95 -0.418411 0.771928 0.478601
1.03333 -4.26667 24 -0.510377 0.703519 0.494547
1.03333 -4.2 22.45 0.804895 -0.358735 -0.472709
1.03333 -4.2 23.25 0.387135 0.905033 0.176184
1.03333 -4.2 23.3 0.356351 0.929008 0.0997905
1.03333 -4.2 23.35 0.359067 0.932883 0.0282929
1.03333 -4.2 23.45 0.344641 0.934897 -0.0847938
1.03333 -4.2 23.55 0.265065 0.96165 -0.0704963
1.03333 -4.2 23.8 -0.383209 0.861546 0.333
1.03333 -4.2 23.85 -0.436078 0.811263 0.389471
1.03333 -4.13333 22.35 0.96172 -0.00453039 -0.273997
1.03333 -4.13333 22.4 0.957732 -0.0230706 -0.286735
1.03333 -4.13333 23.05 0.509522 0.78751 0.346721
1.03333 -4.13333 23.1 0.468186 0.826785 0.311814
1.03333 -4.13333 23.15 0.445121 0.853838 0.269866
1.03333 -4.13333 23.2 0.441245 0.869385 0.222423
1.03333 -4.13333 23.4 0.518913 0.854316 -0.0295386
1.03333 -4.13333 23.5 0.425485 0.897597 -0.115248
1.03333 -4.13333 23.6 0.21231 0.976616 -0.0338529
1.03333 -4.13333 23.65 0 0.999842 0.0177968
1.03333 -4.13333 23.7 -0.312428 0.929174 0.197546
1.03333 -4.13333 23.75 -0.621584 0.724201 0.298607
1.03333 -4.06667 22.3 0.931825 -0.0251249 -0.362038
1.03333 -4.06667 22.9 0.500089 0.809857 0.306663
1.03333 -4.06667 22.95 0.503285 0.789036 0.352315
1.03333 -4.06667 23 0.513983 0.777299 0.362806
1.03333 -4 22.3 0.892892 -0.125228 -0.432506
1.03333 -4 22.7 0.466224 0.850312 0.244142
1.03333 -4 22.75 0.356058 0.883669 0.303894
1.03333 -4 22.8 0.413433 0.855223 0.312516
1.03333 -4 22.85 0.514724 0.80657 0.290696
1.03333 -3.93333 22.25 0.823261 -0.332042 -0.460424
1.03333 -3.93333 22.3 0.854992 -0.209112 -0.474616
1.03333 -3.93333 22.35 0.917641 -0.0637179 -0.39227
1.03333 -3.93333 22.4 0.967609 0.0655697 -0.24379
1.03333 -3.93333 22.45 0.963024 0.236538 -0.128972
1.03333 -3.93333 22.5 0.874439 0.484736 0.0196746
1.03333 -3.93333 22.55 0.786441 0.614833 0.0590942
1.03333 -3.93333 22.6 0.69531 0.712623 0.0933442
1.03333 -3.93333 22.65 0.556083 0.801556 0.219727
1.03333 -3.86667 22.2 0.693538 -0.515625 -0.503127
1.03333 -3.86667 22.25 0.791686 -0.344963 -0.504216
1.03333 -1.33333 23.05 0.979452 -0.151102 -0.133575
1.03333 -1.33333 23.1 0.982272 -0.157668 -0.101403
1.03333 -1.33333 23.15 0.985943 -0.15618 -0.0593595
1.03333 -1.33333 23.2 0.989447 -0.14007 -0.0370925
1.03333 -1.33333 23.25 0.99036 -0.136361 -0.0243615
1.03333 -1.33333 23.3 0.986273 -0.158857 -0.0450539
1.03333 -1.33333 23.35 0.980865 -0.186416 -0.0561496
1.03333 -1.33333 23.4 0.975961 -0.214432 -0.0389622
1.03333 -1.33333 23.45 0.97078 -0.239951 0.00328233
1.03333 -1.33333 23.5 0.960656 -0.27527 0.0369686
1.03333 -1.33333 23.55 0.946123 -0.309388 0.0955529
1.03333 -1.33333 23.6 0.935011 -0.333265 0.121194
1.03333 -1.33333 23.65 0.930729 -0.3389 0.13744
1.03333 -1.26667 23 0.981835 -0.124056 -0.143562
1.03333 -1.26667 23.05 0.983104 -0.121983 -0.136481
1.03333 -1.26667 23.1 0.987128 -0.120839 -0.104768
1.03333 -1.26667 23.15 0.991499 -0.120258 -0.0496793
1.03333 -1.26667 23.2 0.994113 -0.104724 -0.0277752
1.03333 -1.26667 23.25 0.993987 -0.105023 -0.0309844
1.03333 -1.26667 23.3 0.990848 -0.120015 -0.0617749
1.03333 -1.26667 23.35 0.986966 -0.140559 -0.0783649
1.03333 -1.26667 23.4 0.983518 -0.160751 -0.0827757
1.03333 -1.26667 23.7 0.933532 -0.330893 0.137945
1.03333 -1.26667 23.75 0.927529 -0.345208 0.143251
1.03333 -1.26667 23.8 0.929626 -0.330613 0.162757
1.03333 -1.26667 23.85 0.947839 -0.279324 0.153556
1.03333 -1.2 23 0.984209 -0.0877574 -0.153722
1.03333 -1.2 23.05 0.98475 -0.0932571 -0.14687
1.03333 -1.2 23.1 0.988647 -0.0996792 -0.112433
1.03333 -1.2 23.15 0.992935 -0.107111 -0.0510635
1.03333 -1.2 23.2 0.994258 -0.102089 -0.0320733
1.03333 -1.2 23.25 0.993378 -0.10728 -0.0411228
1.03333 -1.2 23.3 0.990848 -0.120015 -0.0617757
1.03333 -1.2 23.35 0.988664 -0.119856 -0.0904357
1.03333 -1.2 23.8 0.925487 -0.341022 0.164854
1.03333 -1.2 23.85 0.918048 -0.360756 0.164446
1.03333 -1.2 23.9 0.919957 -0.358448 0.158727
1.03333 -1.13333 23 0.986691 -0.0359537 -0.158581
1.03333 -1.13333 23.05 0.98757 -0.0461699 -0.150246
1.03333 -1.13333 23.1 0.992163 -0.0572561 -0.111063
1.03333 -1.13333 23.15 0.996555 -0.062404 -0.0546245
1.03333 -1.13333 23.2 0.996977 -0.067341 -0.0387489
1.03333 -1.13333 23.25 0.995672 -0.0771025 -0.0518799
1.03333 -1.13333 23.3 0.994382 -0.085193 -0.0628249
1.03333 -1.13333 23.35 0.993132 -0.0724662 -0.0918597
1.03333 -1.13333 23.9 0.916852 -0.364001 0.163971
1.03333 -1.13333 23.95 0.900988 -0.400592 0.166573
1.03333 -1.13333 24 0.889065 -0.420998 0.179788
1.03333 -1.13333 24.05 0.889951 -0.416066 0.186751
1.03333 -1.06667 23 0.985456 -0.0279697 -0.167616
1.03333 -1.06667 23.05 0.986758 -0.0430999 -0.156369
1.03333 -1.06667 23.1 0.991889 -0.0586204 -0.11278
1.03333 -1.06667 23.15 0.996174 -0.0615678 -0.0620247
1.03333 -1.06667 23.2 0.995673 -0.0771026 -0.051879
1.03333 -1.06667 23.25 0.994382 -0.0851931 -0.0628238
1.03333 -1.06667 23.3 0.994251 -0.0859541 -0.063851
1.03333 -1.06667 23.35 0.994076 -0.0707524 -0.0824993
1.03333 -1.06667 24.1 0.840904 -0.493628 0.221836
1.03333 -1.06667 24.15 0.843285 -0.469627 0.261383
1.03333 -1 23 0.98431 -0.0304328 -0.173802
1.03333 -1 23.05 0.985068 -0.04552 -0.16604
1.03333 -1 23.1 0.990515 -0.0611374 -0.123053
1.03333 -1 24.2 0.780385 -0.528027 0.334943
1.03333 -1 24.25 0.79694 -0.496126 0.344596
1.03333 -0.933333 22.95 0.972925 -0.0229877 -0.229976
1.03333 -0.933333 23 0.981846 -0.0353515 -0.186355
1.03333 -0.933333 23.05 0.980409 -0.0553988 -0.189024
1.03333 -0.933333 23.1 0.985574 -0.0764244 -0.151006
1.03333 -0.933333 24.3 0.741032 -0.543495 0.394315
1.03333 -0.866667 22.95 0.970767 -0.0254138 -0.238675
1.03333 -0.866667 23 0.979476 -0.0326979 -0.19889
1.03333 -0.866667 23.05 0.97583 -0.0526929 -0.212085
1.03333 -0.866667 23.1 0.980925 -0.0740158 -0.179746
1.03333 -0.866667 24.35 0.700171 -0.55256 0.452149
1.03333 -0.866667 24.4 0.674849 -0.516656 0.526921
1.03333 -0.8 22.95 0.968666 -0.0227625 -0.247322
1.03333 -0.8 23 0.977145 -0.0225537 -0.211374
1.03333 -0.8 23.05 0.971223 -0.0375189 -0.235198
1.03333 -0.8 23.1 0.976349 -0.053771 -0.209409
1.03333 -0.8 24.45 0.620085 -0.497371 0.606726
1.03333 -0.8 24.5 0.697351 -0.417585 0.582516
1.03333 -0.733333 22.95 0.96487 -0.022592 -0.261754
1.03333 -0.733333 23 0.975772 -0.0225132 -0.217627
1.03333 -0.733333 23.05 0.969353 -0.0375616 -0.242782
1.03333 -0.733333 24.55 0.720023 -0.379648 0.580891
1.03333 -0.666667 22.95 0.962555 -0.0175015 -0.270521
1.03333 -0.666667 23 0.97445 -0.0174824 -0.223925
1.03333 -0.666667 23.05 0.966167 -0.0299986 -0.256165
1.03333 -0.666667 24.55 0.681738 -0.368428 0.632056
1.03333 -0.6 22.95 0.957369 -0.0544745 -0.283685
1.03333 -0.6 23 0.968989 -0.0548477 -0.24094
1.03333 -0.6 23.05 0.962597 -0.062924 -0.26353
1.03333 -0.6 24.6 0.712998 -0.334906 0.616013
1.03333 -0.533333 22.95 0.952729 -0.0662325 -0.296514
1.03333 -0.533333 23 0.963116 -0.0670714 -0.260593
1.03333 -0.533333 24.6 0.629264 -0.387797 0.673529
1.03333 -0.466667 22.95 0.947442 -0.0585466 -0.314525
1.03333 -0.466667 23 0.957449 -0.0669095 -0.280739
1.03333 -0.466667 23.05 0.947954 -0.0809626 -0.307941
1.03333 -0.466667 24.65 0.539679 -0.409684 0.735463
1.03333 -0.4 22.9 0.943013 -0.0148896 -0.332422
1.03333 -0.4 24.7 0.525248 -0.371653 0.765499
1.03333 -0.333333 22.9 0.935493 0.0296403 -0.3521
1.03333 -0.333333 22.95 0.939337 0.0121247 -0.342781
1.03333 -0.333333 24.75 0.584519 -0.302369 0.752935
1.03333 -0.266667 22.95 0.934069 0.0627976 -0.351527
1.03333 -0.266667 24.75 0.536037 -0.27394 0.798512
1.03333 -0.2 22.95 0.92385 0.118868 -0.36383
1.03333 -0.2 23 0.932247 0.111484 -0.34422
1.03333 -0.2 24.75 0.54257 -0.244571 0.803618
1.03333 -0.133333 23 0.933605 0.13515 -0.331839
1.03333 -0.133333 24.75 0.60627 -0.208482 0.767445
1.03333 -0.0666667 23 0.925408 0.20014 -0.321814
1.03333 -0.0666667 23.05 0.925212 0.208955 -0.316734
1.03333 -0.0666667 24.8 0.624602 -0.167869 0.762688
1.03333 0 23 0.922975 0.248231 -0.294106
1.03333 0 23.05 0.919136 0.273064 -0.283944
1.03333 0 23.15 0.91858 0.268133 -0.290372
1.03333 0 24.85 0.760099 -0.125261 0.63762
1.03333 0.0666667 23.1 0.916206 0.31007 -0.253818
1.03333 0.0666667 23.15 0.909509 0.317665 -0.268108
1.03333 0.0666667 24.8 0.728337 -0.0859598 0.679806
1.03333 0.133333 23.15 0.915376 0.303903 -0.264063
1.03333 0.133333 23.2 0.901243 0.313505 -0.299125
1.03333 0.133333 24.8 0.76647 -0.0736077 0.638049
1.03333 0.2 23.25 0.904521 0.279906 -0.321705
1.03333 0.2 23.3 0.905834 0.273912 -0.323166
1.03333 0.2 23.35 0.917358 0.281428 -0.281518
1.03333 0.2 24.85 0.759419 -0.1994 0.619292
1.03333 0.266667 23.4 0.945735 0.196667 -0.258664
1.03333 0.266667 23.45 0.954157 0.187026 -0.233679
1.03333 0.266667 23.5 0.97699 0.137785 -0.162807
1.03333 0.266667 24.85 0.776679 -0.265554 0.571184
1.03333 0.333333 23.4 0.947189 0.208877 -0.243318
1.03333 0.333333 23.45 0.955599 0.21147 -0.205208
1.03333 0.333333 23.5 0.965399 0.206362 -0.159435
1.03333 0.333333 24.9 0.761288 -0.350026 0.545822
1.03333 0.4 23.35 0.951479 0.191282 -0.241036
1.03333 0.4 23.4 0.949888 0.22821 -0.213619
1.03333 0.4 24.95 0.753891 -0.412008 0.51176
1.03333 0.466667 23.35 0.97618 0.0819007 -0.200911
1.03333 0.466667 23.4 0.964 0.180894 -0.194887
1.03333 0.466667 23.55 0.929083 0.338034 -0.150123
1.03333 0.466667 23.6 0.918526 0.330888 -0.216388
1.03333 0.466667 25 0.732044 -0.448954 0.512399
1.03333 0.466667 25.05 0.724659 -0.454039 0.518381
1.03333 0.533333 23.35 0.98205 -0.115018 -0.149493
1.03333 0.533333 23.4 0.98411 0.0486841 -0.170755
1.03333 0.533333 23.45 0.974901 0.191591 -0.113404
1.03333 0.533333 23.5 0.951789 0.29125 -0.0962861
1.03333 0.533333 23.65 0.86395 0.352519 -0.359613
1.03333 0.533333 23.7 0.81977 0.331688 -0.466863
1.03333 0.533333 25.1 0.723767 -0.423797 0.54457
1.03333 0.6 23.75 0.769096 0.292339 -0.568356
1.03333 0.6 25.15 0.722268 -0.388809 0.571976
1.03333 0.666667 23.75 0.765367 0.257631 -0.58978
1.03333 0.666667 25.2 0.721658 -0.371462 0.584146
1.03333 0.733333 23.8 0.749955 0.236591 -0.617732
1.03333 0.733333 25.2 0.725282 -0.382374 0.572501
1.03333 0.8 23.8 0.752394 0.23016 -0.617195
1.03333 0.8 25.25 0.718809 -0.383718 0.579719
1.03333 0.866667 23.8 0.768139 0.227552 -0.598484
1.03333 0.866667 25.3 0.72604 -0.39902 0.560044
1.03333 0.866667 25.35 0.732889 -0.37349 0.568665
1.03333 0.933333 23.85 0.760023 0.301635 -0.575657
1.03333 0.933333 25.4 0.733368 -0.374472 0.5674
1.03333 1 23.9 0.772162 0.369423 -0.517003
1.03333 1 25.4 0.72447 -0.383628 0.572688
1.03333 1 25.45 0.737056 -0.379416 0.559278
1.03333 1.06667 23.95 0.782456 0.378394 -0.494551
1.03333 1.06667 24 0.795802 0.366172 -0.482303
1.03333 1.06667 25.45 0.737165 -0.369805 0.565536
1.03333 1.13333 24.05 0.794212 0.367622 -0.48382
1.03333 1.13333 25.5 0.765659 -0.333323 0.550148
1.03333 1.2 24.05 0.790677 0.386983 -0.47442
1.03333 1.2 25.55 0.792106 -0.291265 0.536407
1.03333 1.26667 24.05 0.832933 0.348082 -0.430189
1.03333 1.26667 24.1 0.783395 0.378264 -0.493163
1.03333 1.26667 24.15 0.779013 0.359364 -0.513806
1.03333 1.26667 25.6 0.810218 -0.240007 0.534736
1.03333 1.33333 24.15 0.780825 0.358662 -0.51154
1.03333 1.33333 24.2 0.772954 0.36824 -0.516664
1.03333 1.33333 25.6 0.791797 -0.246436 0.558862
1.03333 1.4 24.25 0.763417 0.333313 -0.553259
1.03333 1.4 25.6 0.802658 -0.238214 0.546804
1.03333 1.46667 24.25 0.753654 0.337046 -0.564275
1.03333 1.46667 25.65 0.780557 -0.283615 0.55704
1.03333 1.53333 24.3 0.757469 0.343298 -0.555327
1.03333 1.53333 25.7 0.781275 -0.288829 0.553342
1.03333 1.6 24.35 0.753282 0.350477 -0.556536
1.03333 1.6 25.75 0.793911 -0.265855 0.546833
1.03333 1.66667 24.4 0.748907 0.370462 -0.549451
1.03333 1.66667 25.8 0.799677 -0.215444 0.560447
1.03333 1.73333 24.45 0.758696 0.363611 -0.540525
1.03333 1.73333 25.8 0.792535 -0.205931 0.574005
1.03333 1.73333 25.85 0.845161 -0.168151 0.507373
1.03333 1.8 24.45 0.768069 0.363818 -0.526979
1.03333 1.8 25.8 0.798405 -0.193317 0.570243
1.03333 1.86667 24.5 0.760499 0.365968 -0.536385
1.03333 1.86667 24.55 0.768252 0.375025 -0.518792
1.03333 1.86667 25.8 0.812347 -0.206486 0.545395
1.03333 1.93333 24.55 0.74544 0.420854 -0.516914
1.03333 1.93333 25.85 0.788704 -0.314705 0.528117
1.03333 2 24.6 0.7426 0.438929 -0.505852
1.03333 2 25.9 0.758819 -0.40989 0.506147
1.03333 2.06667 24.65 0.736553 0.468772 -0.487589
1.03333 2.06667 24.7 0.723707 0.490846 -0.485096
1.03333 2.06667 25.95 0.720303 -0.478119 0.502559
1.03333 2.13333 24.7 0.757076 0.474364 -0.449237
1.03333 2.13333 24.75 0.697731 0.50472 -0.508358
1.03333 2.13333 26 0.746139 -0.464338 0.477145
1.03333 2.13333 26.05 0.775994 -0.443269 0.448715
1.03333 2.2 24.8 0.673763 0.496149 -0.547613
1.03333 2.2 24.85 0.663849 0.491074 -0.564049
1.03333 2.2 26.1 0.797063 -0.388934 0.461974
1.03333 2.2 26.15 0.83134 -0.356647 0.426236
1.03333 2.26667 24.9 0.671584 0.475845 -0.567931
1.03333 2.26667 26.2 0.848925 -0.270091 0.454287
1.03333 2.33333 24.9 0.690604 0.479127 -0.54176
1.03333 2.33333 24.95 0.659485 0.480403 -0.578181
1.03333 2.33333 26.25 0.862081 -0.223255 0.454944
1.03333 2.4 24.95 0.701974 0.456211 -0.546905
1.03333 2.4 26.2 0.857456 -0.20465 0.47211
1.03333 2.46667 25 0.697514 0.465008 -0.5452
1.03333 2.46667 25.05 0.654378 0.497241 -0.569684
1.03333 2.46667 26.25 0.856884 -0.213688 0.469134
1.03333 2.46667 26.3 0.855225 -0.23135 0.463754
1.03333 2.53333 25.1 0.642342 0.520305 -0.562742
1.03333 2.53333 26.3 0.85662 -0.286144 0.42933
1.03333 2.6 25.1 0.748797 0.423311 -0.51001
1.03333 2.6 25.15 0.648878 0.526008 -0.549794
1.03333 2.6 26.35 0.848732 -0.34732 0.398777
1.03333 2.66667 25.2 0.676057 0.524379 -0.517661
1.03333 2.66667 25.25 0.698408 0.538651 -0.471255
1.03333 2.66667 26.4 0.828153 -0.369222 0.421707
1.03333 2.66667 26.45 0.847363 -0.366718 0.384049
1.03333 2.73333 25.3 0.72395 0.512069 -0.462258
1.03333 2.73333 25.35 0.735499 0.485845 -0.472224
1.03333 2.73333 26.5 0.851028 -0.371392 0.371241
1.03333 2.8 25.4 0.748258 0.451932 -0.485662
1.03333 2.8 26.55 0.859166 -0.345541 0.377406
1.03333 2.86667 25.45 0.786816 0.421977 -0.450395
1.03333 2.86667 26.6 0.871254 -0.348188 0.345951
1.03333 2.93333 25.5 0.812063 0.388752 -0.43523
1.03333 2.93333 26.65 0.882048 -0.351648 0.313586
1.03333 2.93333 26.75 0.884063 -0.336714 0.324124
1.03333 3 25.5 0.875471 0.321658 -0.360675
1.03333 3 25.55 0.839791 0.392817 -0.374761
1.03333 3 26.7 0.883207 -0.333527 0.329704
1.03333 3 26.75 0.865259 -0.333483 0.374322
1.03333 3 26.8 0.879554 -0.307104 0.363417
1.03333 3.06667 25.6 0.828529 0.402788 -0.388974
1.03333 3.06667 26.8 0.874127 -0.300939 0.381232
1.03333 3.06667 26.85 0.885246 -0.272882 0.376663
1.03333 3.13333 25.65 0.836635 0.397434 -0.376945
1.03333 3.13333 25.7 0.816328 0.409415 -0.407416
1.03333 3.13333 26.85 0.878386 -0.299933 0.372126
1.03333 3.2 25.75 0.814304 0.438576 -0.38021
1.03333 3.2 25.8 0.817307 0.42672 -0.387194
1.03333 3.2 26.85 0.88607 -0.324155 0.331367
1.03333 3.2 26.95 0.881372 -0.37988 0.280846
1.03333 3.26667 25.85 0.813653 0.446457 -0.372351
1.03333 3.26667 26.85 0.908984 -0.308027 0.280836
1.03333 3.26667 26.9 0.888903 -0.365456 0.276212
1.03333 3.26667 27 0.850271 -0.458275 0.258887
