0.72 0.84 23.4
0.76 0.84 23.34
0.76 0.8 23.31
0.76 0.76 23.28
0.76 0.72 23.25
0.76 0.68 23.22
0.74 0.56 23.16
0.74 0.52 23.13
0.76 0.52 23.1
0.78 0.52 23.07
0.8 0.52 23.04
0.8 0.48 23.01
0.82 0.48 22.98
0.82 0.44 22.95
0.84 0.4 22.89
0.84 0.36 22.86
0.86 0.36 22.83
0.86 0.32 22.8
0.84 0.28 22.8
0.84 0.2 22.74
0.88 0.08 22.65
0.86 0.16 22.68
0.86 0.12 22.65
0.88 0.04 22.62
-1.8 1.48 23.91
-1.78 1.52 23.91
-1.76 1.56 23.91
-1.76 1.6 23.94
-1.74 1.72 24
-1.76 1.76 24.06
-1.74 1.76 24.03
-1.76 1.8 24.09
-1.82 1.32 23.82
-1.82 1.28 23.79
-1.76 1.84 24.12
-1.74 1.88 24.12
-1.74 1.84 24.15
-1.72 1.88 24.15
-1.7 1.88 24.18
-1.68 1.88 24.21
-1.66 1.84 24.27
-1.64 1.88 24.27
-1.62 1.84 24.27
-1.84 1.2 23.76
-1.9 1.08 23.76
-1.88 1.12 23.76
-1.86 1.16 23.76
-1.92 1.04 23.76
-1.92 1 23.73
-1.92 0.96 23.7
-1.94 0.84 23.64
-1.94 0.8 23.61
-1.58 1.88 24.3
-1.56 1.92 24.3
-1.52 1.96 24.33
-1.5 2 24.33
-1.48 2 24.36
-1.46 2.04 24.36
-1.42 2.08 24.39
-1.38 2.16 24.39
-1.36 2.24 24.36
-1.34 2.28 24.36
-1.28 2.36 24.39
-1.24 2.44 24.39
-1.22 2.48 24.39
-1.18 2.52 24.42
-1.16 2.56 24.42
-1.14 2.64 24.39
-1.14 2.6 24.42
-1.12 2.68 24.39
-1.1 2.72 24.39
-1.06 2.8 24.39
-1.04 2.84 24.39
-1 2.88 24.36
-0.92 3.04 24.3
-0.88 3.2 24.24
-0.88 3.16 24.27
-0.88 3.24 24.21
-0.86 3.32 24.18
-0.86 3.36 24.15
-0.84 3.36 24.12
-0.84 3.32 24.09
-0.78 3.28 23.97
-0.78 3.24 23.94
-0.76 3.24 23.91
-0.74 3.24 23.88
-0.72 3.2 23.88
-0.72 3.16 23.85
-0.7 3.16 23.82
-0.68 3.08 23.79
-0.66 3.04 23.79
-1.98 0.72 23.61
-1.96 0.76 23.61
-0.66 3.04 23.73
-0.66 3 23.7
-0.66 2.96 23.67
-0.64 2.92 23.61
-0.64 2.88 23.58
-0.6 2.84 23.55
-0.6 2.8 23.52
-0.6 2.76 23.49
-0.58 2.72 23.43
-0.58 2.68 23.4
-0.56 2.64 23.34
-0.5 2.36 23.1
-0.48 2.32 23.1
-0.46 2.32 23.13
-0.46 2.28 23.1
-0.46 2.24 23.07
-0.54 2.64 23.31
-0.54 2.6 23.28
-0.54 2.56 23.25
-0.52 2.52 23.19
-0.52 2.48 23.16
-0.52 2.44 23.13
-0.52 2.4 23.1
-0.24 2.08 22.92
-0.22 2.08 22.95
-0.22 2.04 22.92
-0.2 2.04 22.95
-0.18 2 22.95
-0.24 1.96 22.83
-0.22 1.96 22.86
-0.2 1.92 22.86
-0.18 1.92 22.89
-0.16 1.88 22.89
-0.16 1.84 22.86
-0.14 1.8 22.86
-0.14 1.76 22.83
-0.12 1.72 22.83
-0.1 1.68 22.83
-0.08 1.64 22.83
-0.08 1.6 22.8
-0.08 1.56 22.77
-0.06 1.52 22.77
-0.08 1.48 22.71
-0.06 1.48 22.74
-0.06 1.44 22.71
-0.04 1.4 22.71
-0.02 1.4 22.74
-0.02 1.36 22.71
-0.06 1.32 22.68
0 1.32 22.71
0.06 1.2 22.83
0.08 1.2 22.86
0.1 1.2 22.89
0.12 1.24 22.95
0.16 1.16 23.01
0.18 1.12 23.07
0.2 1.12 23.1
0.22 1.12 23.13
0.24 1.12 23.16
0.26 1.12 23.19
0.32 1.08 23.31
0.32 1.12 23.28
0.32 1.16 23.25
0.34 1.08 23.34
0.4 1.12 23.4
0 1.28 22.68
0.02 1.28 22.71
0.04 1.28 22.74
0.42 1.12 23.43
0.46 1.16 23.46
0.48 1.16 23.49
0.52 1.2 23.52
0.64 1.28 23.7
0.64 1.32 23.67
0.66 1.36 23.67
0.54 1.24 23.52
0.56 1.24 23.55
0.58 1.28 23.55
0.62 1.32 23.58
0.64 1.28 23.76
0.66 1.28 23.79
0.66 1.44 23.67
0.66 1.4 23.64
0.68 1.4 23.67
0.7 1.4 23.7
-0.44 2.2 23.01
-0.44 2.16 22.98
-0.42 2.12 22.92
-0.4 2.08 22.86
-0.38 2.08 22.83
-0.38 2.04 22.8
-0.38 2 22.77
-0.38 1.96 22.74
-0.36 1.92 22.74
-0.32 1.92 22.74
-0.3 1.92 22.77
-0.28 1.92 22.8
-0.26 1.92 22.77
-0.24 1.92 22.8
-0.22 1.92 22.83
-0.34 1.92 22.71
0.64 2.92 25.29
0.68 2.88 25.26
0.7 2.88 25.23
0.72 2.84 25.23
0.66 2.92 25.32
0.66 2.96 25.35
0.66 3 25.38
0.66 3.04 25.41
0.5 3.24 25.62
0.52 3.24 25.59
0.6 3.16 25.53
0.62 3.16 25.5
0.64 3.12 25.5
0.68 3.08 25.47
0.68 3.04 25.44
0.26 3.68 26.13
0.28 3.68 26.1
0.3 3.64 26.1
0.32 3.64 26.07
0.34 3.64 26.04
0.36 3.64 26.01
0.36 3.6 26.04
0.38 3.6 26.01
0.4 3.6 25.98
0.42 3.6 25.95
0.44 3.56 25.95
0.46 3.56 25.92
0.46 3.52 25.89
0.5 3.48 25.86
0.5 3.44 25.83
0.5 3.32 25.68
0.5 3.36 25.71
0.5 3.4 25.74
0.52 3.44 25.8
0.2 3.76 26.46
0.24 3.72 26.25
0.26 3.72 26.22
0.24 3.68 26.16
0.26 3.68 26.19
0.22 3.76 26.31
0.24 3.76 26.28
0.24 3.76 26.34
0.22 3.76 26.43
0.24 3.76 26.4
0.26 3.76 26.37
0.2 3.76 26.52
0.22 3.76 26.49
-2 0.64 23.58
-2 0.6 23.55
-2 0.56 23.52
-2.02 0.44 23.46
-2.02 0.4 23.43
-2.02 0.36 23.4
-2 0.24 23.28
-2 0.2 23.25
-2 0.16 23.22
-2 0.12 23.19
-2 -0.04 23.19
-2 0 23.16
-2.02 0.04 23.16
-1.82 -0.48 23.19
-1.8 -0.52 23.19
-1.8 -0.48 23.16
-1.84 -0.44 23.19
-1.86 -0.4 23.19
-1.78 -0.52 23.16
-1.88 -0.36 23.19
-1.9 -0.32 23.19
-1.92 -0.28 23.19
-1.98 -0.2 23.22
-1.96 -0.2 23.19
-1.76 -0.56 23.16
-1.74 -0.6 23.16
-1.72 -0.6 23.13
-1.7 -0.72 23.19
-1.7 -0.68 23.16
-1.7 -0.64 23.13
-1.68 -0.8 23.22
-1.66 -0.88 23.25
-1.64 -0.92 23.25
-1.62 -1 23.28
-1.6 -1.04 23.28
-1.58 -1.08 23.28
-1.56 -1.12 23.28
-1.52 -1.16 23.25
-1.5 -1.2 23.25
-1.48 -1.24 23.25
-1.46 -1.24 23.22
-1.44 -1.28 23.22
-1.42 -1.32 23.22
-1.98 -0.16 23.19
-1.4 -1.36 23.22
-1.38 -1.4 23.22
-1.36 -1.4 23.19
-1.34 -1.44 23.19
-2 -0.12 23.19
-1.24 -1.64 23.19
-1.22 -1.68 23.19
-1.2 -1.72 23.19
-1.18 -1.76 23.19
-1.16 -1.8 23.19
-1.16 -1.84 23.22
-1.14 -1.88 23.22
-1.12 -1.92 23.22
-1.1 -1.96 23.22
-1.1 -2 23.25
-1.08 -2.04 23.25
-1.06 -2.08 23.25
-1.06 -2.12 23.28
-1.04 -2.2 23.31
-1.02 -2.28 23.34
-0.96 -2.44 23.37
-0.94 -2.48 23.37
-0.92 -2.48 23.4
-0.9 -2.48 23.37
-0.9 -2.6 23.4
-0.88 -2.64 23.4
-0.88 -2.68 23.43
-0.86 -2.68 23.46
-0.88 -2.72 23.46
-0.86 -2.76 23.46
-0.84 -2.8 23.46
-0.82 -2.84 23.46
-0.8 -2.88 23.46
-0.8 -2.92 23.49
-0.78 -2.96 23.49
-0.76 -3.04 23.52
-0.74 -3.08 23.52
-0.72 -3.12 23.52
-0.7 -3.16 23.52
-0.62 -3.32 23.52
-0.6 -3.36 23.52
-0.58 -3.4 23.52
-0.56 -3.44 23.52
-0.54 -3.48 23.52
-0.52 -3.52 23.52
-0.48 -3.56 23.49
-0.46 -3.6 23.49
-0.4 -3.68 23.46
-0.38 -3.72 23.46
-0.34 -3.76 23.43
-0.32 -3.8 23.43
-0.28 -3.84 23.4
-0.26 -3.88 23.4
-0.22 -3.96 23.4
-0.18 -4 23.37
-0.16 -4.04 23.37
-0.14 -4.08 23.37
-0.1 -4.12 23.4
-0.08 -4.16 23.4
-0.04 -4.2 23.43
-0.02 -4.16 23.43
0.08 3.88 26.97
0.08 3.92 26.94
0.2 3.8 26.61
0.2 3.84 26.64
0.2 3.84 26.7
0.22 3.84 26.67
0.06 3.88 27.06
0.06 3.84 27.09
0.06 3.8 27.12
0.08 3.8 27.15
0.08 3.76 27.18
0.08 3.72 27.21
0.1 3.68 27.21
0.1 3.64 27.24
0.1 3.6 27.27
0.12 3.52 27.3
0.2 3.36 27.3
0.22 3.32 27.3
0.24 3.28 27.3
0.26 3.24 27.3
0.3 3.2 27.27
0.32 3.16 27.27
0.34 3.16 27.24
0.36 3.12 27.24
0.38 3.12 27.21
0.4 3.08 27.21
0.42 3.08 27.18
0.5 2.96 27.15
0.52 2.96 27.12
0.58 2.92 27.06
0.6 2.92 27.03
0.64 2.88 27
0.66 2.84 27
0.7 2.8 26.97
0.8 2.76 26.85
0.8 2.8 26.82
0.84 2.76 26.79
0.86 2.76 26.76
1.08 2.72 26.46
1.1 2.76 26.4
1.1 2.8 26.37
1.12 2.76 26.37
1.12 2.8 26.34
1.14 2.8 26.31
1.16 2.84 26.25
1.16 2.88 26.22
1.16 2.92 26.19
1.16 2.96 26.16
1.16 3 26.13
1.16 3.04 26.1
1.16 3.08 26.07
1.16 3.04 26.04
1.16 3.08 26.01
1.14 3.04 25.95
1.16 3.12 25.98
1.14 3.08 25.92
1.14 3.12 25.89
1.14 3.08 25.86
1.12 3.12 25.86
1.1 3.12 25.77
1.08 3.12 25.74
1.02 3.12 25.65
1.04 3.12 25.68
1.06 3.12 25.71
1 3.12 25.62
1.02 3.12 25.59
1 3.08 25.59
0.94 3.04 25.53
0.96 3.04 25.56
0.92 3.04 25.5
0.92 3 25.47
0.9 3 25.44
0.9 2.96 25.41
0.88 2.96 25.38
0.84 2.92 25.35
0.76 2.88 25.26
0.78 2.88 25.29
0.8 2.88 25.32
0.82 2.92 25.32
0.04 -4.12 23.43
0.1 -4.04 23.4
0.14 -4 23.37
0.16 -3.96 23.37
0.2 -3.92 23.34
0.2 -3.88 23.31
0.2 -3.84 23.28
0.2 -3.8 23.25
0.22 -3.76 23.25
0.24 -3.68 23.22
0.28 -3.56 23.19
0.3 -3.48 23.16
0.32 -3.44 23.16
0.4 -3.2 23.1
0.48 -3 23.07
0.5 -2.96 23.07
0.52 -2.92 23.07
0.54 -2.88 23.07
0.56 -2.84 23.07
0.58 -2.8 23.07
0.6 -2.76 23.07
0.64 -2.64 23.04
0.66 -2.6 23.04
0.68 -2.52 23.01
0.7 -2.44 22.98
0.72 -2.4 22.98
0.74 -2.36 22.98
0.76 -2.32 22.98
0.8 -2.2 22.95
0.82 -2.2 22.98
0.82 -2.16 22.95
0.84 -2.12 22.95
0.86 -2.08 22.95
0.86 -2.04 22.92
0.86 -2 22.89
0.88 -1.96 22.89
0.88 -1.92 22.86
0.9 -1.84 22.83
0.9 -1.8 22.8
0.9 -1.72 22.8
0.9 -1.76 22.77
0.9 -1.68 22.77
0.92 -1.64 22.77
0.92 -1.6 22.74
0.94 -1.56 22.74
0.96 -1.52 22.74
0.96 -1.44 22.74
0.98 -1.28 22.77
0.96 -1.36 22.74
0.96 -1.4 22.71
0.96 -1.2 22.74
0.96 -1.16 22.71
0.96 -0.96 22.74
0.96 -1 22.71
0.94 -1.08 22.68
0.96 -0.8 22.74
0.94 -0.88 22.71
0.98 -0.6 22.8
0.96 -0.68 22.77
0.96 -0.72 22.74
0.96 -0.52 22.77
0.96 -0.48 22.74
0.88 0 22.62
0.96 -0.44 22.71
0.96 -0.4 22.68
0.94 -0.36 22.68
0.92 -0.28 22.65
0.9 -0.2 22.62
0.88 -0.12 22.59
0.68 1.28 23.76
0.68 1.24 23.73
0.7 1.24 23.7
0.72 1.24 23.67
0.74 1.24 23.64
0.74 1.2 23.61
0.72 1.12 23.58
0.72 1.08 23.55
0.7 1 23.52
0.7 0.96 23.49
0.7 0.92 23.46
0.7 0.88 23.43
0.72 0.84 23.37
0.74 0.84 23.34
0.76 0.84 23.31
0.76 0.72 23.22
0.74 0.64 23.19
0.74 0.6 23.16
0.74 0.52 23.1
0.76 0.52 23.07
0.78 0.52 23.04
0.8 0.48 22.98
0.82 0.44 22.92
0.82 0.4 22.89
0.84 0.36 22.83
0.86 0.36 22.8
0.86 0.32 22.77
0.82 0.24 22.77
0.84 0.2 22.71
0.84 0.16 22.68
0.86 0.12 22.62
-1.82 1.44 23.88
-1.76 1.68 23.97
-1.76 1.64 23.94
-1.82 1.4 23.85
-1.76 1.76 24.03
-1.82 1.36 23.82
-1.76 1.84 24.09
-1.82 1.32 23.79
-1.84 1.24 23.76
-1.76 1.88 24.12
-1.74 1.92 24.12
-1.72 1.92 24.15
-1.7 1.92 24.18
-1.68 1.88 24.24
-1.68 1.84 24.27
-1.66 1.88 24.27
-1.92 1.08 23.76
-1.9 1.12 23.76
-1.88 1.16 23.76
-1.92 1.04 23.73
-1.92 1 23.7
-1.94 0.92 23.67
-1.94 0.88 23.64
-1.94 0.84 23.61
-1.94 0.8 23.58
-1.6 1.88 24.3
-1.58 1.92 24.3
-1.54 1.96 24.33
-1.52 2 24.33
-1.48 2.04 24.36
-1.46 2.08 24.36
-1.44 2.12 24.36
-1.44 2.08 24.39
-1.42 2.16 24.36
-1.4 2.2 24.36
-1.4 2.16 24.39
-1.38 2.2 24.39
-1.38 2.24 24.36
-1.36 2.28 24.36
-1.32 2.32 24.39
-1.3 2.36 24.39
-1.26 2.44 24.39
-1.24 2.48 24.39
-1.2 2.52 24.42
-1.18 2.56 24.42
-1.14 2.68 24.39
-1.12 2.72 24.39
-1.1 2.76 24.39
-1.08 2.8 24.39
-1.06 2.84 24.39
-1.04 2.88 24.39
-1.02 2.92 24.39
-1 2.92 24.36
-0.98 2.96 24.36
-0.96 3 24.36
-0.94 3 24.33
-0.92 3.08 24.3
-0.92 3.04 24.33
-0.9 3.16 24.27
-0.9 3.12 24.3
-0.88 3.28 24.21
-0.88 3.32 24.18
-0.86 3.4 24.15
-0.84 3.4 24.12
-0.84 3.36 24.09
-0.84 3.32 24.06
-0.82 3.32 24.03
-0.8 3.32 24
-0.78 3.28 24
-0.78 3.28 23.94
-0.74 3.24 23.85
-0.74 3.2 23.82
-0.72 3.2 23.85
-0.72 3.16 23.82
-0.7 3.16 23.79
-0.68 3.12 23.79
-0.68 3.08 23.76
-2 0.72 23.61
-1.96 0.76 23.58
-0.66 3.08 23.73
-0.66 3.04 23.7
-0.66 3 23.67
-0.66 2.96 23.64
-0.64 2.92 23.58
-0.64 2.88 23.55
-0.62 2.88 23.52
-0.6 2.84 23.52
-0.6 2.8 23.49
-0.6 2.76 23.46
-0.58 2.72 23.4
-0.58 2.68 23.37
-0.56 2.64 23.31
-0.5 2.36 23.07
-0.48 2.32 23.07
-0.46 2.32 23.1
-0.46 2.28 23.07
-0.46 2.24 23.04
-0.54 2.64 23.28
-0.54 2.6 23.25
-0.54 2.56 23.22
-0.52 2.52 23.16
-0.52 2.48 23.13
-0.52 2.44 23.1
-0.52 2.4 23.07
-0.2 1.88 22.86
-0.18 1.88 22.83
-0.16 1.84 22.83
-0.1 1.6 22.74
-0.08 1.56 22.74
-0.08 1.52 22.71
-0.06 1.52 22.74
-0.1 1.44 22.68
-0.08 1.4 22.68
-0.06 1.36 22.68
-0.04 1.28 22.65
-0.02 1.28 22.68
0.06 1.2 22.8
0.12 1.2 22.89
0.12 1.24 22.92
0.14 1.24 22.95
0.16 1.2 22.95
0.16 1.16 22.98
0.18 1.12 23.04
0.06 1.24 22.77
0.2 1.12 23.07
0.22 1.12 23.1
0.24 1.12 23.13
0.26 1.12 23.16
0.28 1.12 23.19
0.28 1.16 23.22
0.3 1.12 23.22
0.34 1.08 23.31
0.32 1.16 23.22
0.36 1.08 23.34
0.38 1.08 23.37
0.4 1.12 23.37
0.42 1.12 23.4
0.02 1.28 22.68
0.04 1.28 22.71
0.44 1.12 23.43
0.48 1.16 23.46
0.5 1.16 23.49
0.66 1.28 23.7
0.64 1.36 23.61
0.66 1.32 23.67
0.68 1.36 23.67
0.6 1.28 23.55
0.64 1.32 23.58
0.66 1.28 23.76
0.68 1.44 23.67
0.72 1.4 23.7
-0.44 2.16 22.95
-0.42 2.12 22.89
-0.38 2.08 22.8
-0.38 2.04 22.77
-0.38 2 22.74
-0.38 1.96 22.71
-0.36 1.92 22.71
-0.32 1.92 22.71
-0.3 1.92 22.74
-0.28 1.92 22.77
0.66 2.92 25.29
0.7 2.88 25.26
0.72 2.88 25.23
0.68 2.92 25.32
0.68 2.96 25.35
0.68 3 25.38
0.68 3.04 25.41
0.5 3.28 25.62
0.54 3.24 25.59
0.56 3.2 25.59
0.58 3.2 25.56
0.62 3.16 25.53
0.64 3.16 25.5
0.66 3.12 25.5
0.7 3.08 25.47
0.7 3.04 25.44
0.26 3.68 26.16
0.28 3.68 26.13
0.34 3.64 26.07
0.4 3.6 26.01
0.42 3.6 25.98
0.46 3.56 25.95
0.48 3.56 25.92
0.48 3.52 25.89
0.5 3.52 25.86
0.52 3.48 25.86
0.52 3.44 25.83
0.5 3.32 25.65
0.52 3.32 25.68
0.52 3.36 25.71
0.52 3.4 25.74
0.52 3.44 25.77
0.54 3.44 25.8
0.26 3.72 26.25
0.28 3.72 26.22
0.24 3.76 26.31
0.26 3.76 26.28
0.26 3.76 26.34
0.24 3.76 26.43
0.26 3.76 26.4
0.2 3.76 26.55
0.22 3.76 26.52
-2 0.68 23.58
-2 0.64 23.55
-2 0.6 23.52
-2.02 0.52 23.49
-2.02 0.48 23.46
-2.02 0.44 23.43
-2.02 0.4 23.4
-2.04 0.32 23.37
-2.02 0.32 23.34
-2 0.32 23.31
-2 0.28 23.28
-2 0.24 23.25
-2 0.2 23.22
-2.02 0.08 23.16
-2 -0.08 23.19
-2 -0.04 23.16
-2.02 0.04 23.13
-1.82 -0.48 23.16
-1.84 -0.44 23.16
-1.78 -0.52 23.13
-1.9 -0.36 23.19
-1.88 -0.36 23.16
-1.9 -0.32 23.16
-1.94 -0.24 23.16
-1.96 -0.2 23.16
-1.76 -0.6 23.16
-1.76 -0.56 23.13
-1.74 -0.6 23.13
-1.7 -0.76 23.19
-1.7 -0.72 23.16
-1.7 -0.68 23.13
-1.68 -0.84 23.22
-1.64 -0.96 23.25
-1.58 -1.08 23.25
-1.56 -1.12 23.25
-1.54 -1.16 23.25
-1.52 -1.2 23.25
-1.5 -1.24 23.25
-1.48 -1.24 23.22
-1.4 -1.36 23.19
-1.38 -1.4 23.19
-1.32 -1.48 23.16
-1.3 -1.52 23.16
-2 -0.12 23.16
-1.28 -1.56 23.16
-1.26 -1.6 23.16
-1.18 -1.8 23.19
-1.12 -1.96 23.22
-1.08 -2.08 23.25
-1.08 -2.12 23.28
-1.06 -2.16 23.28
-1.04 -2.16 23.31
-1.06 -2.2 23.31
-1.04 -2.24 23.31
-1.04 -2.28 23.34
-1.02 -2.32 23.34
-1 -2.36 23.34
-0.98 -2.4 23.34
-0.98 -2.44 23.37
-0.96 -2.48 23.37
-0.94 -2.52 23.37
-0.92 -2.56 23.37
-0.92 -2.6 23.4
-0.9 -2.68 23.43
-0.82 -2.88 23.46
-0.82 -2.92 23.49
-0.8 -2.96 23.49
-0.78 -3 23.49
-0.74 -3.12 23.52
-0.72 -3.16 23.52
-0.7 -3.2 23.52
-0.68 -3.24 23.52
-0.66 -3.28 23.52
-0.64 -3.32 23.52
-0.62 -3.36 23.52
-0.6 -3.4 23.52
-0.58 -3.44 23.52
-0.5 -3.56 23.49
-0.48 -3.6 23.49
-0.44 -3.64 23.46
-0.42 -3.68 23.46
-0.36 -3.76 23.43
-0.34 -3.8 23.43
-0.3 -3.84 23.4
-0.28 -3.88 23.4
-0.24 -3.92 23.37
-0.24 -3.96 23.4
-0.2 -4 23.37
-0.18 -4.04 23.37
-0.16 -4.08 23.37
-0.12 -4.12 23.4
-0.1 -4.16 23.4
-0.06 -4.2 23.43
-0.04 -4.2 23.46
0 -4.16 23.43
0.02 -4.12 23.43
0.08 3.88 27
0.1 3.92 26.94
0.1 3.96 26.91
0.1 3.92 26.88
0.2 3.84 26.61
0.06 3.88 27.09
0.08 3.92 27.03
0.06 3.84 27.12
0.08 3.88 27.12
0.08 3.84 27.15
0.08 3.8 27.18
0.08 3.76 27.21
0.1 3.68 27.24
0.1 3.64 27.27
0.12 3.56 27.3
0.12 3.52 27.33
0.14 3.48 27.33
0.16 3.44 27.33
0.18 3.4 27.33
0.2 3.36 27.33
0.28 3.24 27.3
0.3 3.2 27.3
0.32 3.2 27.27
0.34 3.16 27.27
0.36 3.16 27.24
0.38 3.12 27.24
0.42 3.08 27.21
0.44 3.08 27.18
0.46 3.04 27.18
0.48 3 27.18
0.52 2.96 27.15
0.54 2.96 27.12
0.56 2.96 27.09
0.62 2.92 27.03
0.64 2.92 27
0.66 2.88 27
0.68 2.84 27
0.7 2.84 26.97
0.72 2.8 26.97
0.74 2.8 26.94
0.76 2.8 26.91
0.78 2.8 26.88
0.82 2.8 26.82
0.88 2.76 26.76
0.9 2.76 26.73
0.92 2.76 26.7
0.94 2.76 26.67
0.96 2.76 26.64
0.98 2.76 26.61
1 2.76 26.58
1.02 2.76 26.55
1.04 2.76 26.52
1.06 2.76 26.49
1.08 2.76 26.46
1.1 2.76 26.43
1.1 2.8 26.4
1.12 2.84 26.34
1.14 2.8 26.34
1.14 2.84 26.31
1.16 2.84 26.28
1.16 2.88 26.25
1.16 2.92 26.22
1.16 2.96 26.19
1.16 3 26.16
1.16 3.04 26.13
1.16 3.08 26.1
1.16 3.12 26.07
1.16 3.08 26.04
1.16 3.12 26.01
1.14 3.08 25.95
1.16 3.16 25.98
1.14 3.12 25.92
1.12 3.12 25.89
1.14 3.12 25.86
1.1 3.16 25.83
1.08 3.16 25.8
0.98 3.12 25.62
1 3.12 25.59
0.98 3.08 25.59
0.9 3.04 25.5
0.9 3 25.47
0.88 3 25.44
0.9 3 25.41
0.86 2.96 25.38
0.82 2.92 25.35
0.74 2.88 25.26
0.76 2.88 25.29
0.8 2.92 25.32
0.06 -4.12 23.43
0.08 -4.08 23.43
0.12 -4.04 23.4
0.16 -4 23.37
0.18 -3.96 23.37
0.2 -3.96 23.34
0.22 -3.92 23.34
0.22 -3.88 23.31
0.22 -3.84 23.28
0.22 -3.8 23.25
0.24 -3.76 23.25
0.24 -3.72 23.22
0.26 -3.68 23.22
0.26 -3.64 23.19
0.28 -3.6 23.19
0.3 -3.56 23.19
0.3 -3.52 23.16
0.34 -3.4 23.13
0.34 -3.36 23.1
0.36 -3.32 23.1
0.38 -3.28 23.1
0.4 -3.24 23.1
0.42 -3.2 23.1
0.42 -3.16 23.07
0.44 -3.12 23.07
0.46 -3.08 23.07
0.48 -3.04 23.07
0.6 -2.76 23.04
0.62 -2.72 23.04
0.64 -2.68 23.04
0.66 -2.6 23.01
0.68 -2.56 23.01
0.68 -2.52 22.98
0.7 -2.48 22.98
0.72 -2.4 22.95
0.74 -2.36 22.95
0.76 -2.32 22.95
0.78 -2.28 22.95
0.8 -2.24 22.95
0.84 -2.16 22.95
0.84 -2.12 22.92
0.86 -2.08 22.92
0.86 -2.04 22.89
0.86 -2 22.86
0.88 -1.96 22.86
0.88 -1.92 22.83
0.9 -1.88 22.83
0.9 -1.84 22.8
0.9 -1.8 22.77
0.9 -1.72 22.77
0.9 -1.76 22.74
0.9 -1.68 22.74
0.92 -1.64 22.74
0.92 -1.6 22.71
0.94 -1.56 22.71
0.96 -1.48 22.74
0.96 -1.52 22.71
0.96 -1.44 22.71
0.96 -1.32 22.74
0.96 -1.36 22.71
0.96 -1.24 22.74
0.96 -1.2 22.71
0.94 -1.12 22.68
0.96 -0.96 22.71
0.94 -1.04 22.68
0.94 -1.08 22.65
0.94 -0.92 22.71
0.94 -0.84 22.71
0.94 -0.88 22.68
0.96 -0.64 22.77
0.96 -0.68 22.74
0.94 -0.76 22.71
0.96 -0.56 22.77
0.96 -0.52 22.74
0.86 -0.04 22.59
0.96 -0.44 22.68
0.94 -0.36 22.65
0.92 -0.32 22.65
0.92 -0.28 22.62
0.9 -0.24 22.62
0.88 -0.16 22.59
0.86 -0.08 22.56
0.66 1.24 23.73
0.68 1.24 23.7
0.7 1.24 23.67
0.72 1.2 23.61
0.74 1.28 23.64
0.72 1.16 23.58
0.7 1.08 23.55
0.7 1.04 23.52
0.68 0.96 23.49
0.68 0.92 23.46
0.7 0.88 23.4
0.72 0.84 23.34
0.74 0.84 23.31
0.74 0.8 23.28
0.74 0.76 23.25
0.74 0.72 23.22
0.74 0.68 23.19
0.72 0.56 23.13
0.72 0.52 23.1
0.74 0.52 23.07
0.76 0.52 23.04
0.78 0.52 23.01
0.78 0.48 22.98
0.8 0.48 22.95
0.8 0.44 22.92
0.82 0.4 22.86
0.82 0.36 22.83
0.84 0.36 22.8
0.86 0.36 22.77
0.84 0.32 22.77
0.82 0.28 22.77
0.82 0.24 22.74
0.82 0.2 22.71
0.86 0.08 22.62
0.84 0.16 22.65
0.86 0.04 22.59
-1.82 1.48 23.88
-1.8 1.52 23.88
-1.78 1.56 23.88
-1.78 1.6 23.91
-1.82 1.44 23.85
-1.76 1.72 23.97
-1.76 1.68 23.94
-1.76 1.76 24
-1.78 1.8 24.06
-1.78 1.76 24.03
-1.84 1.28 23.76
-1.86 1.24 23.76
-1.74 1.96 24.12
-1.7 1.92 24.21
-1.7 1.88 24.24
-1.68 1.88 24.27
-1.64 1.92 24.3
-1.62 1.88 24.3
-1.92 1.08 23.73
-1.86 1.2 23.73
-1.94 0.96 23.67
-1.94 0.92 23.64
-1.94 0.88 23.61
-1.94 0.84 23.58
-1.6 1.92 24.3
-1.56 1.96 24.33
-1.54 2 24.33
-1.5 2.04 24.36
-1.48 2.08 24.36
-1.46 2.12 24.36
-1.42 2.2 24.36
-1.4 2.24 24.36
-1.34 2.32 24.39
-1.32 2.36 24.39
-1.28 2.44 24.39
-1.26 2.48 24.39
-1.22 2.52 24.42
-1.2 2.56 24.42
-1.16 2.64 24.42
-1.16 2.6 24.45
-1.14 2.72 24.39
-1.12 2.76 24.39
-1.1 2.8 24.39
-1.04 2.92 24.39
-1.04 2.88 24.42
-1.02 2.96 24.39
-0.98 3 24.36
-0.96 3.04 24.36
-0.92 3.12 24.3
-0.9 3.24 24.24
-0.9 3.2 24.27
-0.9 3.28 24.21
-0.88 3.36 24.18
-0.84 3.4 24.09
-0.82 3.36 24.03
-0.8 3.36 24
-0.8 3.32 23.97
-0.78 3.32 23.94
-0.78 3.28 23.91
-0.76 3.28 23.88
-0.7 3.16 23.76
-0.68 3.12 23.76
-2 0.72 23.58
-1.98 0.76 23.58
-0.66 3.08 23.7
-0.66 3.04 23.67
-0.66 3 23.64
-0.66 2.96 23.61
-0.64 2.92 23.55
-0.62 2.92 23.52
-0.62 2.88 23.49
-0.6 2.84 23.49
-0.6 2.8 23.46
-0.6 2.76 23.43
-0.58 2.72 23.37
-0.58 2.68 23.34
-0.56 2.64 23.28
-0.48 2.32 23.04
-0.46 2.32 23.07
-0.46 2.28 23.04
-0.46 2.24 23.01
-0.46 2.2 22.98
-0.56 2.6 23.25
-0.54 2.6 23.22
-0.54 2.56 23.19
-0.52 2.52 23.13
-0.52 2.48 23.1
-0.52 2.44 23.07
-0.52 2.4 23.04
-0.2 1.88 22.83
-0.18 1.88 22.8
-0.18 1.84 22.77
-0.16 1.84 22.8
-0.14 1.84 22.83
-0.14 1.8 22.8
-0.12 1.8 22.83
-0.12 1.76 22.8
-0.1 1.72 22.8
-0.08 1.68 22.8
-0.1 1.64 22.74
-0.08 1.64 22.77
-0.06 1.64 22.8
-0.08 1.6 22.74
-0.06 1.6 22.77
-0.06 1.56 22.74
-0.1 1.52 22.71
-0.04 1.52 22.74
-0.1 1.48 22.68
-0.1 1.4 22.68
-0.12 1.44 22.68
-0.08 1.36 22.68
-0.08 1.32 22.65
-0.06 1.28 22.65
-0.02 1.28 22.65
0.06 1.2 22.77
0.08 1.16 22.83
0.12 1.2 22.86
0.14 1.24 22.92
0.18 1.12 23.01
0.2 1.12 23.04
0.06 1.24 22.74
0.22 1.12 23.07
0.24 1.12 23.1
0.28 1.12 23.16
0.3 1.12 23.19
0.34 1.08 23.28
0.36 1.08 23.31
0.34 1.12 23.25
0.34 1.16 23.22
0.38 1.08 23.34
0.42 1.12 23.37
0.44 1.12 23.4
0 1.24 22.65
0.02 1.24 22.68
0.46 1.12 23.43
0.52 1.16 23.49
0.54 1.2 23.49
0.56 1.2 23.52
0.66 1.36 23.61
0.68 1.36 23.64
0.68 1.32 23.67
0.7 1.36 23.67
0.58 1.24 23.52
0.62 1.28 23.55
0.66 1.32 23.58
0.68 1.32 23.61
-0.44 2.16 22.92
-0.42 2.12 22.86
-0.4 2.12 22.83
-0.38 2 22.71
-0.38 1.96 22.68
-0.36 1.92 22.68
-0.3 1.92 22.71
-0.28 1.92 22.74
-0.26 1.88 22.74
-0.24 1.88 22.77
-0.22 1.88 22.8
-0.34 1.88 22.68
0.68 2.92 25.29
0.7 2.88 25.29
0.72 2.88 25.26
0.7 2.92 25.32
0.7 2.96 25.35
0.7 3 25.38
0.7 3.04 25.41
0.72 3 25.41
0.52 3.28 25.62
0.56 3.24 25.59
0.6 3.2 25.56
0.64 3.16 25.53
0.68 3.12 25.5
0.7 3.12 25.47
0.72 3.08 25.47
0.72 3.04 25.44
0.28 3.68 26.16
0.3 3.68 26.13
0.32 3.68 26.1
0.36 3.64 26.07
0.38 3.64 26.04
0.44 3.6 25.98
0.5 3.56 25.92
0.5 3.52 25.89
0.52 3.52 25.86
0.54 3.48 25.86
0.54 3.44 25.83
0.52 3.32 25.65
0.54 3.32 25.68
0.54 3.36 25.71
0.54 3.4 25.74
0.54 3.44 25.77
0.56 3.44 25.8
0.22 3.8 26.46
0.28 3.72 26.19
0.26 3.76 26.31
0.28 3.76 26.28
0.28 3.76 26.34
0.28 3.8 26.37
0.24 3.8 26.49
-2 0.68 23.55
-2.02 0.56 23.49
-2.02 0.52 23.46
-2.02 0.48 23.43
-2.04 0.36 23.37
-2.04 0.32 23.34
-2.02 0.32 23.31
-2 0.32 23.28
-2 0.28 23.25
-2 0.24 23.22
-2.02 0.16 23.19
-2.02 0.12 23.16
-2.02 0.08 23.13
-2 -0.08 23.16
-2.02 0 23.13
-2.02 0.04 23.1
-1.82 -0.48 23.13
-1.8 -0.52 23.13
-1.86 -0.44 23.16
-1.84 -0.44 23.13
-1.88 -0.4 23.16
-1.86 -0.4 23.13
-1.78 -0.52 23.1
-1.92 -0.32 23.16
-1.9 -0.32 23.13
-1.94 -0.28 23.16
-1.92 -0.28 23.13
-1.98 -0.2 23.16
-1.96 -0.2 23.13
-1.76 -0.6 23.13
-1.76 -0.56 23.1
-1.74 -0.6 23.1
-1.72 -0.64 23.1
-1.7 -0.8 23.19
-1.7 -0.76 23.16
-1.7 -0.72 23.13
-1.68 -0.88 23.22
-1.66 -0.92 23.22
-1.64 -1 23.25
-1.62 -1.04 23.25
-1.6 -1.08 23.25
-1.52 -1.2 23.22
-1.5 -1.24 23.22
-1.5 -1.2 23.19
-1.48 -1.24 23.19
-1.46 -1.28 23.19
-1.44 -1.32 23.19
-1.42 -1.36 23.19
-2 -0.16 23.16
-1.98 -0.16 23.13
-1.4 -1.36 23.16
-1.38 -1.4 23.16
-1.36 -1.44 23.16
-1.34 -1.48 23.16
-1.32 -1.52 23.16
-1.3 -1.56 23.16
-2 -0.12 23.13
-1.28 -1.6 23.16
-1.26 -1.64 23.16
-1.24 -1.68 23.16
-1.22 -1.72 23.16
-1.2 -1.76 23.16
-1.2 -1.8 23.19
-1.18 -1.84 23.19
-1.16 -1.88 23.19
-1.14 -1.92 23.19
-1.14 -1.96 23.22
-1.12 -2 23.22
-1.1 -2.04 23.22
-1.1 -2.08 23.25
-1.1 -2.12 23.28
-1.08 -2.16 23.28
-1 -2.4 23.34
-0.94 -2.56 23.37
-0.92 -2.64 23.4
-0.9 -2.64 23.43
-0.92 -2.68 23.43
-0.9 -2.72 23.43
-0.88 -2.76 23.43
-0.86 -2.8 23.43
-0.84 -2.84 23.43
-0.84 -2.88 23.46
-0.84 -2.92 23.49
-0.82 -2.96 23.49
-0.8 -3 23.49
-0.78 -3.04 23.49
-0.76 -3.08 23.49
-0.76 -3.12 23.52
-0.74 -3.16 23.52
-0.72 -3.2 23.52
-0.7 -3.24 23.52
-0.68 -3.28 23.52
-0.66 -3.32 23.52
-0.64 -3.36 23.52
-0.56 -3.48 23.49
-0.54 -3.52 23.49
-0.52 -3.56 23.49
-0.5 -3.6 23.49
-0.46 -3.64 23.46
-0.44 -3.68 23.46
-0.4 -3.72 23.43
-0.38 -3.76 23.43
-0.32 -3.84 23.4
-0.3 -3.88 23.4
-0.26 -3.92 23.37
-0.22 -4 23.37
-0.2 -4.04 23.37
-0.18 -4.08 23.37
-0.16 -4.12 23.37
-0.14 -4.12 23.4
-0.12 -4.16 23.4
-0.08 -4.2 23.43
-0.06 -4.2 23.46
-0.04 -4.2 23.49
-0.02 -4.2 23.46
0.08 3.92 27
0.1 3.92 26.97
0.1 3.88 26.88
0.22 3.84 26.61
0.22 3.88 26.64
0.08 3.92 27.06
0.08 3.96 27.03
0.08 3.92 27.12
0.08 3.88 27.15
0.08 3.84 27.18
0.08 3.8 27.21
0.1 3.72 27.24
0.1 3.68 27.27
0.12 3.6 27.3
0.12 3.56 27.33
0.14 3.52 27.33
0.16 3.48 27.33
0.18 3.44 27.33
0.2 3.4 27.33
0.22 3.36 27.33
0.24 3.32 27.33
0.26 3.28 27.33
0.3 3.24 27.3
0.34 3.2 27.27
0.38 3.16 27.24
0.4 3.12 27.24
0.42 3.12 27.21
0.44 3.08 27.21
0.46 3.08 27.18
0.48 3.04 27.18
0.5 3 27.18
0.54 2.96 27.15
0.56 2.96 27.12
0.58 2.96 27.09
0.6 2.96 27.06
0.66 2.92 27
0.68 2.88 27
0.7 2.88 26.97
0.72 2.84 26.97
0.74 2.8 26.97
0.76 2.8 26.94
0.78 2.8 26.91
0.8 2.8 26.88
0.82 2.8 26.85
0.84 2.8 26.82
0.86 2.8 26.79
0.88 2.8 26.76
0.98 2.76 26.64
1 2.76 26.61
1.02 2.76 26.58
1.06 2.76 26.52
1.1 2.8 26.43
1.12 2.84 26.37
1.12 2.88 26.34
1.14 2.88 26.31
1.16 2.88 26.28
1.16 2.92 26.25
1.16 2.96 26.22
1.16 3 26.19
1.16 3.04 26.16
1.16 3.08 26.13
1.16 3.12 26.1
1.16 3.12 26.04
1.16 3.16 26.01
1.14 3.12 25.95
1.14 3.16 25.92
1.1 3.16 25.86
1.08 3.2 25.8
1.08 3.16 25.77
1.06 3.16 25.74
1 3.16 25.65
1.02 3.16 25.68
1.04 3.16 25.71
0.96 3.12 25.62
0.98 3.12 25.59
0.96 3.08 25.59
0.92 3.08 25.53
0.94 3.08 25.56
0.88 3.04 25.5
0.88 3 25.47
0.86 3 25.44
0.88 3 25.41
0.84 2.96 25.38
0.74 2.88 25.29
0.78 2.92 25.32
0.04 -4.16 23.46
0.08 -4.12 23.43
0.1 -4.08 23.43
0.12 -4.04 23.43
0.14 -4.04 23.4
0.18 -4 23.37
0.24 -3.92 23.34
0.24 -3.88 23.31
0.24 -3.84 23.28
0.26 -3.72 23.22
0.28 -3.64 23.19
0.32 -3.48 23.13
0.34 -3.44 23.13
0.5 -3 23.04
0.52 -2.96 23.04
0.54 -2.92 23.04
0.56 -2.88 23.04
0.58 -2.84 23.04
0.6 -2.8 23.04
0.64 -2.68 23.01
0.66 -2.64 23.01
0.68 -2.56 22.98
0.7 -2.48 22.95
0.72 -2.44 22.95
0.76 -2.36 22.95
0.8 -2.24 22.92
0.82 -2.2 22.92
0.84 -2.16 22.92
0.86 -2.08 22.89
0.86 -2.04 22.86
0.86 -2 22.83
0.88 -1.96 22.83
0.88 -1.92 22.8
0.9 -1.88 22.8
0.9 -1.84 22.77
0.9 -1.8 22.74
0.9 -1.72 22.74
0.9 -1.76 22.71
0.9 -1.68 22.71
0.92 -1.64 22.71
0.92 -1.6 22.68
0.94 -1.56 22.68
0.96 -1.48 22.71
0.96 -1.28 22.74
0.96 -1.32 22.71
0.94 -1.4 22.68
0.96 -1.24 22.71
0.94 -1.16 22.68
0.94 -1.12 22.65
0.94 -1 22.68
0.94 -1.04 22.65
0.94 -0.92 22.68
0.94 -0.8 22.71
0.94 -0.84 22.68
0.94 -0.88 22.65
0.96 -0.6 22.77
0.96 -0.64 22.74
0.94 -0.72 22.71
0.94 -0.76 22.68
0.96 -0.56 22.74
0.94 -0.48 22.71
0.86 0 22.59
0.86 -0.04 22.56
0.94 -0.4 22.65
0.92 -0.32 22.62
0.9 -0.24 22.59
0.88 -0.2 22.59
0.86 -0.12 22.56
0.86 -0.08 22.53
0.72 1.28 23.64
0.72 1.24 23.61
0.7 1.16 23.58
0.7 1.12 23.55
0.68 1.04 23.52
0.68 1 23.49
0.68 0.92 23.43
0.68 0.88 23.4
0.7 0.88 23.37
0.7 0.84 23.34
0.74 0.84 23.28
0.74 0.72 23.19
0.72 0.64 23.16
0.72 0.6 23.13
0.72 0.52 23.07
0.74 0.52 23.04
0.76 0.52 23.01
0.78 0.48 22.95
0.8 0.44 22.89
0.8 0.4 22.86
0.82 0.36 22.8
0.84 0.32 22.74
0.82 0.28 22.74
0.82 0.2 22.68
0.86 0.08 22.59
0.84 0.16 22.62
0.84 0.12 22.59
-1.78 1.6 23.88
-1.78 1.64 23.91
-1.84 1.4 23.82
-1.78 1.76 24
-1.78 1.84 24.06
-1.78 1.8 24.03
-1.84 1.36 23.79
-1.78 1.88 24.09
-1.76 1.92 24.09
-1.84 1.32 23.76
-1.74 1.96 24.15
-1.72 1.96 24.18
-1.72 1.92 24.21
-1.7 1.88 24.27
-1.66 1.92 24.3
-1.62 1.92 24.3
-1.92 1.12 23.73
-1.9 1.16 23.73
-1.88 1.2 23.73
-1.94 1.04 23.7
-1.94 1 23.67
-1.94 0.96 23.64
-1.94 0.92 23.61
-1.96 0.8 23.55
-1.58 1.96 24.33
-1.56 2 24.33
-1.52 2.04 24.36
-1.5 2.08 24.36
-1.48 2.12 24.36
-1.44 2.2 24.36
-1.44 2.16 24.39
-1.42 2.24 24.36
-1.38 2.28 24.39
-1.36 2.32 24.39
-1.34 2.36 24.39
-1.32 2.4 24.39
-1.3 2.44 24.39
-1.28 2.48 24.39
-1.24 2.52 24.42
-1.22 2.56 24.42
-1.18 2.64 24.42
-1.18 2.6 24.45
-1.16 2.72 24.39
-1.16 2.68 24.42
-1.14 2.76 24.39
-1.12 2.8 24.39
-1.08 2.84 24.42
-1.06 2.92 24.39
-1.06 2.88 24.42
-1.04 2.96 24.39
-1.02 3 24.39
-1 2.96 24.39
-0.96 3.12 24.33
-0.96 3.08 24.36
-0.94 3.08 24.33
-0.94 3.04 24.36
-0.92 3.2 24.27
-0.92 3.16 24.3
-0.92 3.24 24.24
-0.9 3.32 24.21
-0.88 3.4 24.18
-0.88 3.36 24.21
-0.88 3.44 24.15
-0.86 3.44 24.12
-0.84 3.44 24.09
-0.84 3.4 24.06
-0.82 3.36 24.06
-0.78 3.36 23.94
-0.78 3.32 23.91
-0.76 3.32 23.88
-0.76 3.28 23.85
-0.74 3.28 23.82
-0.72 3.24 23.82
-0.72 3.2 23.79
-0.7 3.16 23.73
-0.68 3.16 23.76
-0.68 3.12 23.73
-2 0.76 23.58
-2 0.72 23.55
-1.98 0.8 23.58
-0.66 3.08 23.67
-0.66 3.04 23.64
-0.66 3 23.61
-0.66 2.96 23.58
-0.64 2.92 23.52
-0.62 2.92 23.49
-0.62 2.88 23.46
-0.6 2.84 23.46
-0.6 2.8 23.43
-0.6 2.76 23.4
-0.58 2.72 23.34
-0.58 2.68 23.31
-0.52 2.36 23.04
-0.5 2.32 23.04
-0.48 2.32 23.01
-0.46 2.32 23.04
-0.46 2.28 23.01
-0.46 2.24 22.98
-0.46 2.2 22.95
-0.56 2.6 23.22
-0.54 2.6 23.19
-0.54 2.56 23.16
-0.52 2.48 23.07
-0.52 2.44 23.04
-0.52 2.4 23.01
-0.2 1.88 22.8
-0.18 1.84 22.74
-0.16 1.84 22.77
-0.12 1.8 22.8
-0.12 1.76 22.77
-0.1 1.72 22.77
-0.1 1.68 22.74
-0.08 1.68 22.77
-0.06 1.64 22.77
-0.12 1.6 22.71
-0.1 1.56 22.71
-0.12 1.48 22.68
-0.1 1.32 22.65
-0.06 1.28 22.62
-0.04 1.24 22.62
-0.02 1.24 22.65
0.08 1.16 22.8
0.1 1.16 22.83
0.12 1.2 22.83
0.14 1.2 22.86
0.14 1.24 22.89
0.16 1.24 22.92
0.18 1.2 22.92
0.18 1.16 22.95
0.18 1.12 22.98
0.2 1.12 23.01
0.22 1.12 23.04
0.04 1.24 22.68
0.06 1.24 22.71
0.24 1.12 23.07
0.26 1.08 23.13
0.28 1.12 23.13
0.3 1.12 23.16
0.32 1.12 23.19
0.36 1.08 23.28
0.38 1.08 23.31
0.34 1.16 23.19
0.4 1.08 23.34
0.46 1.12 23.4
0 1.2 22.65
0.02 1.2 22.68
0.48 1.12 23.43
0.52 1.16 23.46
0.56 1.2 23.49
0.68 1.28 23.67
0.68 1.36 23.61
0.7 1.36 23.64
0.7 1.32 23.67
0.6 1.24 23.52
0.62 1.28 23.52
0.64 1.28 23.55
0.66 1.28 23.58
0.7 1.32 23.61
-0.44 2.16 22.89
-0.42 2.12 22.83
-0.4 2.12 22.8
-0.4 2.08 22.77
-0.4 2.04 22.74
-0.4 2 22.71
-0.38 1.96 22.65
-0.32 1.88 22.68
-0.26 1.88 22.71
-0.24 1.88 22.74
-0.22 1.88 22.77
-0.34 1.88 22.65
0.72 2.88 25.29
0.72 2.92 25.32
0.72 2.96 25.35
0.72 3 25.38
0.74 3 25.41
0.54 3.28 25.62
0.58 3.24 25.59
0.62 3.2 25.56
0.66 3.16 25.53
0.7 3.12 25.5
0.74 3.08 25.47
0.74 3.04 25.44
0.3 3.68 26.16
0.32 3.68 26.13
0.34 3.68 26.1
0.36 3.68 26.07
0.4 3.64 26.04
0.42 3.64 26.01
0.46 3.6 25.98
0.48 3.6 25.95
0.52 3.56 25.92
0.52 3.52 25.89
0.54 3.52 25.86
0.54 3.32 25.65
0.56 3.32 25.68
0.56 3.36 25.71
0.56 3.4 25.74
0.58 3.44 25.8
0.24 3.8 26.46
0.3 3.72 26.19
0.3 3.76 26.22
0.28 3.76 26.25
0.28 3.8 26.4
0.3 3.8 26.37
0.22 3.8 26.55
0.24 3.8 26.52
0.26 3.8 26.49
-2.02 0.64 23.52
-2.02 0.6 23.49
-2.02 0.56 23.46
-2.02 0.52 23.43
-2.04 0.44 23.4
-2.04 0.4 23.37
-2.04 0.36 23.34
-2 0.32 23.25
-2.02 0.2 23.19
-2.02 0.16 23.16
-2.02 0.12 23.13
-2.02 0.08 23.1
-2.02 -0.04 23.13
-2.02 0 23.1
-2.02 0.04 23.07
-1.82 -0.48 23.1
-1.8 -0.52 23.1
-1.84 -0.44 23.1
-1.88 -0.4 23.13
-1.9 -0.36 23.13
-1.94 -0.28 23.13
-1.92 -0.28 23.1
-1.96 -0.24 23.13
-1.94 -0.24 23.1
-1.76 -0.6 23.1
-1.74 -0.6 23.07
-1.72 -0.68 23.1
-1.72 -0.64 23.07
-1.7 -0.84 23.19
-1.7 -0.8 23.16
-1.7 -0.76 23.13
-1.68 -0.88 23.19
-1.66 -0.96 23.22
-1.64 -1 23.22
-1.62 -1.08 23.25
-1.62 -1.04 23.22
-1.6 -1.08 23.22
-1.58 -1.12 23.22
-1.56 -1.16 23.22
-1.54 -1.2 23.22
-1.52 -1.2 23.19
-1.46 -1.32 23.19
-1.44 -1.36 23.19
-1.44 -1.32 23.16
-1.42 -1.36 23.16
-2 -0.16 23.13
-1.98 -0.16 23.1
-2 -0.12 23.1
-1.24 -1.72 23.16
-1.22 -1.76 23.16
-1.18 -1.88 23.19
-1.16 -1.92 23.19
-1.14 -2 23.22
-1.12 -2.04 23.22
-1.12 -2.08 23.25
-1.1 -2.16 23.28
-1.08 -2.2 23.28
-1.08 -2.24 23.31
-1.06 -2.28 23.31
-1.06 -2.24 23.34
-1.04 -2.32 23.31
-1.02 -2.36 23.31
-1.02 -2.4 23.34
-1 -2.44 23.34
-0.98 -2.48 23.34
-0.96 -2.52 23.34
-0.96 -2.56 23.37
-0.94 -2.6 23.37
-0.94 -2.64 23.4
-0.94 -2.68 23.43
-0.92 -2.72 23.43
-0.9 -2.76 23.43
-0.88 -2.8 23.43
-0.86 -2.84 23.43
-0.86 -2.88 23.46
-0.8 -3.04 23.49
-0.78 -3.08 23.49
-0.7 -3.28 23.52
-0.68 -3.32 23.52
-0.62 -3.4 23.49
-0.6 -3.44 23.49
-0.58 -3.48 23.49
-0.56 -3.52 23.49
-0.54 -3.56 23.49
-0.52 -3.6 23.49
-0.48 -3.64 23.46
-0.46 -3.68 23.46
-0.42 -3.72 23.43
-0.4 -3.76 23.43
-0.36 -3.8 23.4
-0.34 -3.84 23.4
-0.28 -3.92 23.37
-0.26 -3.96 23.37
-0.24 -4 23.37
-0.2 -4.08 23.37
-0.18 -4.12 23.37
-0.14 -4.16 23.4
-0.1 -4.2 23.43
-0.08 -4.2 23.46
-0.06 -4.2 23.49
-0.04 -4.2 23.52
-0.02 -4.2 23.49
0 -4.2 23.46
0.02 -4.16 23.46
0.1 3.96 26.97
0.12 4 26.91
0.12 3.96 26.94
0.12 3.96 26.88
0.1 3.88 26.85
0.22 3.88 26.61
0.08 3.92 27.09
0.08 3.92 27.15
0.08 3.88 27.18
0.08 3.84 27.21
0.1 3.76 27.24
0.1 3.72 27.27
0.12 3.64 27.3
0.12 3.6 27.33
0.26 3.32 27.33
0.28 3.28 27.33
0.32 3.24 27.3
0.36 3.2 27.27
0.52 3 27.18
0.56 2.96 27.15
0.58 2.96 27.12
0.6 2.96 27.09
0.62 2.96 27.06
0.64 2.96 27.03
0.68 2.92 27
0.74 2.84 26.97
0.78 2.8 26.94
0.8 2.8 26.91
0.82 2.8 26.88
0.9 2.8 26.76
0.92 2.8 26.73
0.94 2.8 26.7
0.96 2.8 26.67
1 2.76 26.64
1.02 2.8 26.58
1.04 2.8 26.55
1.06 2.8 26.52
1.08 2.8 26.49
1.1 2.8 26.46
1.1 2.84 26.43
1.12 2.84 26.4
1.12 2.88 26.37
1.12 2.92 26.34
1.14 2.92 26.31
1.16 2.88 26.31
1.14 2.96 26.28
1.16 2.92 26.28
1.16 2.96 26.25
1.16 3 26.22
1.16 3.04 26.19
1.16 3.08 26.16
1.16 3.12 26.13
1.16 3.16 26.1
1.16 3.16 26.04
1.14 3.2 25.98
1.14 3.16 25.95
1.12 3.16 25.92
1.1 3.16 25.89
1.08 3.2 25.83
1.1 3.2 25.86
1.06 3.2 25.8
1.06 3.2 25.74
0.98 3.16 25.65
1.04 3.2 25.71
0.96 3.12 25.59
0.9 3.08 25.53
0.92 3.08 25.56
0.88 3.08 25.5
0.86 3 25.41
0.82 2.96 25.38
0.8 2.96 25.35
0.76 2.92 25.32
0.06 -4.16 23.46
0.12 -4.08 23.43
0.14 -4.04 23.43
0.16 -4.04 23.4
0.2 -4 23.37
0.22 -3.96 23.37
0.26 -3.92 23.34
0.24 -3.84 23.25
0.26 -3.84 23.28
0.24 -3.8 23.22
0.26 -3.76 23.22
0.28 -3.68 23.19
0.3 -3.6 23.16
0.32 -3.56 23.16
0.32 -3.52 23.13
0.36 -3.4 23.1
0.36 -3.36 23.07
0.38 -3.32 23.07
0.4 -3.28 23.07
0.42 -3.24 23.07
0.44 -3.2 23.07
0.44 -3.16 23.04
0.46 -3.12 23.04
0.48 -3.08 23.04
0.5 -3.04 23.04
0.52 -3 23.04
0.6 -2.8 23.01
0.62 -2.76 23.01
0.64 -2.72 23.01
0.66 -2.64 22.98
0.68 -2.6 22.98
0.68 -2.56 22.95
0.7 -2.52 22.95
0.72 -2.44 22.92
0.74 -2.4 22.92
0.76 -2.36 22.92
0.78 -2.32 22.92
0.8 -2.28 22.92
0.8 -2.24 22.89
0.82 -2.2 22.89
0.84 -2.16 22.89
0.86 -2.12 22.89
0.86 -2.08 22.86
0.86 -2.04 22.83
0.86 -2 22.8
0.86 -1.96 22.77
0.88 -1.96 22.8
0.88 -1.92 22.77
0.9 -1.88 22.77
0.9 -1.84 22.74
0.9 -1.8 22.71
0.9 -1.72 22.71
0.9 -1.76 22.68
0.9 -1.68 22.68
0.92 -1.64 22.68
0.92 -1.6 22.65
0.94 -1.52 22.68
0.94 -1.56 22.65
0.94 -1.44 22.68
0.96 -1.28 22.71
0.94 -1.36 22.68
0.94 -1.4 22.65
0.94 -1.2 22.68
0.94 -1.16 22.65
0.94 -0.96 22.68
0.94 -1 22.65
0.92 -1.08 22.62
0.94 -0.92 22.65
0.94 -0.8 22.68
0.94 -0.84 22.65
0.96 -0.6 22.74
0.94 -0.68 22.71
0.94 -0.72 22.68
0.94 -0.52 22.71
0.94 -0.48 22.68
0.86 0 22.56
0.94 -0.44 22.65
0.92 -0.36 22.62
0.9 -0.28 22.59
0.86 -0.16 22.56
0.86 -0.12 22.53
0.84 -0.08 22.53
0.7 1.28 23.64
0.7 1.24 23.61
0.72 1.32 23.64
0.7 1.2 23.58
0.68 1.12 23.55
0.68 1.08 23.52
0.66 1 23.49
0.66 0.96 23.46
0.68 0.96 23.43
0.68 0.88 23.37
0.72 0.88 23.31
0.72 0.84 23.28
0.72 0.8 23.25
0.72 0.76 23.22
0.72 0.72 23.19
0.72 0.68 23.16
0.7 0.6 23.13
0.7 0.56 23.1
0.7 0.52 23.07
0.72 0.52 23.04
0.74 0.52 23.01
0.76 0.52 22.98
0.76 0.48 22.95
0.78 0.48 22.92
0.78 0.44 22.89
0.8 0.4 22.83
0.8 0.36 22.8
0.82 0.36 22.77
0.82 0.32 22.74
0.84 0.32 22.71
0.8 0.24 22.71
0.82 0.2 22.65
0.82 0.16 22.62
0.84 0.04 22.56
-1.84 1.48 23.85
-1.82 1.52 23.85
-1.8 1.56 23.85
-1.78 1.68 23.91
-1.84 1.44 23.82
-1.78 1.76 23.97
-1.78 1.72 23.94
-1.84 1.4 23.79
-1.8 1.76 24
-1.78 1.92 24.09
-1.76 1.96 24.09
-1.86 1.28 23.73
-1.88 1.24 23.73
-1.76 2 24.12
-1.74 1.96 24.18
-1.72 1.92 24.24
-1.7 1.92 24.27
-1.68 1.92 24.3
-1.64 1.96 24.33
-1.92 1.16 23.73
-1.94 1.08 23.7
-1.9 1.2 23.73
-1.94 1.04 23.67
-1.94 1 23.64
-1.94 0.96 23.61
-1.96 0.88 23.58
-1.96 0.84 23.55
-1.98 0.8 23.55
-1.6 1.96 24.33
-1.58 2 24.33
-1.56 2.04 24.33
-1.54 2.04 24.36
-1.52 2.08 24.36
-1.5 2.12 24.36
-1.48 2.16 24.36
-1.46 2.2 24.36
-1.46 2.16 24.39
-1.4 2.28 24.39
-1.38 2.32 24.39
-1.32 2.44 24.39
-1.3 2.48 24.39
-1.26 2.52 24.42
-1.24 2.56 24.42
-1.2 2.64 24.42
-1.2 2.6 24.45
-1.18 2.68 24.42
-1.18 2.72 24.39
-1.16 2.76 24.39
-1.14 2.8 24.39
-1.1 2.84 24.42
-1.08 2.88 24.42
-1.04 3 24.39
-1.02 3.04 24.39
-1 3 24.39
-1 3.04 24.36
-0.98 3.08 24.36
-0.98 3.04 24.39
-0.96 3.16 24.33
-0.94 3.12 24.33
-0.94 3.16 24.3
-0.94 3.2 24.27
-0.92 3.28 24.24
-0.9 3.32 24.24
-0.88 3.44 24.18
-0.88 3.4 24.21
-0.84 3.44 24.06
-0.84 3.4 24.03
-0.82 3.4 24
-0.8 3.4 23.97
-0.78 3.36 23.97
-0.78 3.36 23.91
-0.76 3.32 23.85
-0.74 3.32 23.82
-0.72 3.24 23.79
-0.72 3.2 23.76
-0.7 3.16 23.7
-0.68 3.16 23.73
-0.68 3.12 23.7
-2 0.76 23.55
-0.66 3.04 23.61
-0.66 3 23.58
-0.66 2.96 23.55
-0.64 2.92 23.49
-0.62 2.92 23.46
-0.62 2.88 23.43
-0.62 2.84 23.4
-0.6 2.84 23.43
-0.6 2.8 23.4
-0.6 2.76 23.37
-0.58 2.72 23.31
-0.58 2.68 23.28
-0.58 2.64 23.25
-0.52 2.36 23.01
-0.5 2.32 23.01
-0.48 2.32 22.98
-0.46 2.32 23.01
-0.46 2.28 22.98
-0.46 2.24 22.95
-0.46 2.2 22.92
-0.54 2.6 23.16
-0.54 2.56 23.13
-0.54 2.52 23.1
-0.52 2.48 23.04
-0.52 2.44 23.01
-0.52 2.4 22.98
-0.2 1.88 22.77
-0.16 1.84 22.74
-0.14 1.84 22.77
-0.14 1.8 22.74
-0.12 1.76 22.74
-0.12 1.72 22.71
-0.1 1.72 22.74
-0.1 1.68 22.71
-0.12 1.64 22.71
-0.12 1.56 22.71
-0.14 1.6 22.71
-0.12 1.52 22.68
-0.12 1.4 22.65
-0.1 1.36 22.65
-0.14 1.44 22.65
-0.08 1.28 22.62
-0.06 1.24 22.62
-0.04 1.2 22.62
0.08 1.16 22.77
0.06 1.2 22.71
0.08 1.2 22.74
0.1 1.16 22.8
0.14 1.2 22.83
0.16 1.24 22.89
0.2 1.12 22.98
0.22 1.12 23.01
0.24 1.12 23.04
0.04 1.2 22.68
0.08 1.24 22.71
0.26 1.12 23.07
0.26 1.08 23.1
0.3 1.12 23.13
0.32 1.12 23.16
0.36 1.12 23.22
0.36 1.08 23.25
0.4 1.08 23.31
0.42 1.08 23.34
0.44 1.08 23.37
0.46 1.12 23.37
0.48 1.12 23.4
0 1.16 22.65
0.54 1.16 23.46
0.58 1.2 23.49
0.62 1.24 23.52
0.64 1.24 23.55
0.68 1.28 23.58
0.7 1.28 23.61
-0.44 2.16 22.86
-0.42 2.12 22.8
-0.42 2.08 22.77
-0.4 2.08 22.74
-0.42 2.04 22.74
-0.42 2 22.71
-0.4 2 22.68
-0.38 1.92 22.65
-0.4 1.96 22.65
-0.36 1.88 22.65
-0.3 1.88 22.68
-0.28 1.88 22.71
-0.24 1.88 22.71
-0.22 1.88 22.74
-0.34 1.84 22.65
0.74 2.92 25.32
0.74 2.96 25.35
0.74 3 25.38
0.76 3 25.41
0.56 3.28 25.62
0.6 3.24 25.59
0.64 3.2 25.56
0.68 3.16 25.53
0.72 3.12 25.5
0.76 3.08 25.47
0.76 3.04 25.44
0.34 3.68 26.13
0.36 3.68 26.1
0.38 3.68 26.07
0.4 3.64 26.07
0.42 3.64 26.04
0.44 3.64 26.01
0.46 3.64 25.98
0.48 3.6 25.98
0.52 3.6 25.92
0.52 3.56 25.95
0.54 3.56 25.92
0.54 3.52 25.89
0.56 3.52 25.86
0.56 3.48 25.83
0.58 3.48 25.86
0.56 3.32 25.65
0.58 3.32 25.68
0.58 3.36 25.71
0.56 3.44 25.74
0.56 3.4 25.77
0.58 3.4 25.74
0.58 3.44 25.77
0.6 3.44 25.8
0.26 3.8 26.46
0.32 3.72 26.19
0.3 3.76 26.25
0.32 3.76 26.22
0.28 3.8 26.31
0.3 3.8 26.28
0.28 3.8 26.43
0.3 3.8 26.4
0.3 3.8 26.34
0.32 3.8 26.37
0.22 3.8 26.58
0.24 3.8 26.55
0.26 3.8 26.52
-2.02 0.68 23.52
-2.02 0.64 23.49
-2.02 0.6 23.46
-2.04 0.48 23.4
-2.04 0.44 23.37
-2.04 0.4 23.34
-2.04 0.36 23.31
-2.02 0.36 23.28
-2.02 0.28 23.22
-2.02 0.24 23.19
-2.02 0.2 23.16
-2.02 0.16 23.13
-2.02 0.12 23.1
-2.02 0.08 23.07
-2.02 -0.08 23.13
-2.02 -0.04 23.1
-2.02 0 23.07
-1.82 -0.52 23.1
-1.8 -0.52 23.07
-1.86 -0.44 23.1
-1.84 -0.44 23.07
-1.88 -0.4 23.1
-1.86 -0.4 23.07
-1.78 -0.56 23.07
-1.9 -0.36 23.1
-1.92 -0.32 23.1
-1.96 -0.24 23.1
-1.98 -0.2 23.1
-1.76 -0.6 23.07
-1.74 -0.6 23.04
-1.72 -0.72 23.1
-1.72 -0.68 23.07
-1.72 -0.64 23.04
-1.7 -0.84 23.16
-1.7 -0.8 23.13
-1.68 -0.92 23.19
-1.66 -0.96 23.19
-1.64 -1.04 23.22
-1.58 -1.16 23.22
-1.56 -1.16 23.19
-1.54 -1.2 23.19
-1.5 -1.24 23.16
-1.48 -1.28 23.16
-1.46 -1.32 23.16
-1.44 -1.32 23.13
-1.42 -1.36 23.13
-1.4 -1.4 23.13
-1.38 -1.44 23.13
-1.36 -1.48 23.13
-1.34 -1.52 23.13
-1.32 -1.56 23.13
-1.3 -1.6 23.13
-2.02 -0.12 23.1
-2 -0.12 23.07
-1.28 -1.64 23.13
-1.26 -1.68 23.13
-1.24 -1.76 23.16
-1.22 -1.8 23.16
-1.2 -1.84 23.16
-1.18 -1.92 23.19
-1.16 -1.96 23.19
-1.14 -2.04 23.22
-1.14 -2.08 23.25
-1.12 -2.12 23.25
-1.12 -2.16 23.28
-1.1 -2.24 23.31
-1.08 -2.28 23.31
-1.06 -2.32 23.31
-1.04 -2.36 23.31
-1.04 -2.4 23.34
-1.02 -2.44 23.34
-1 -2.48 23.34
-0.98 -2.52 23.34
-0.96 -2.64 23.4
-0.88 -2.84 23.43
-0.88 -2.88 23.46
-0.86 -2.92 23.46
-0.84 -2.96 23.46
-0.82 -3 23.46
-0.82 -3.04 23.49
-0.8 -3.08 23.49
-0.78 -3.12 23.49
-0.76 -3.16 23.49
-0.74 -3.2 23.49
-0.72 -3.24 23.49
-0.66 -3.36 23.49
-0.64 -3.4 23.49
-0.62 -3.44 23.49
-0.6 -3.48 23.49
-0.58 -3.52 23.49
-0.5 -3.64 23.46
-0.48 -3.68 23.46
-0.44 -3.72 23.43
-0.42 -3.76 23.43
-0.38 -3.8 23.4
-0.36 -3.84 23.4
-0.32 -3.88 23.37
-0.3 -3.92 23.37
-0.28 -3.96 23.37
-0.26 -4 23.37
-0.22 -4.08 23.37
-0.2 -4.12 23.37
-0.16 -4.16 23.4
-0.12 -4.2 23.43
-0.1 -4.2 23.46
-0.08 -4.2 23.49
-0.02 -4.2 23.52
0 -4.2 23.49
0.1 3.96 27
0.14 4 26.91
0.1 3.84 26.85
0.24 3.88 26.61
0.24 3.84 26.58
0.24 3.92 26.64
0.24 3.88 26.67
0.1 3.96 27.06
0.1 4 27.03
0.08 3.96 27.15
0.08 3.92 27.18
0.08 3.88 27.21
0.1 3.8 27.24
0.1 3.76 27.27
0.12 3.68 27.3
0.12 3.64 27.33
0.14 3.56 27.36
0.16 3.52 27.36
0.18 3.48 27.36
0.2 3.44 27.36
0.22 3.4 27.36
0.24 3.36 27.36
0.3 3.28 27.33
0.32 3.24 27.33
0.34 3.24 27.3
0.36 3.2 27.3
0.38 3.2 27.27
0.4 3.16 27.27
0.42 3.16 27.24
0.44 3.12 27.24
0.46 3.12 27.21
0.48 3.08 27.21
0.5 3.04 27.21
0.54 3 27.18
0.58 2.96 27.15
0.6 2.96 27.12
0.64 2.96 27.06
0.66 2.96 27.03
0.7 2.92 27
0.72 2.88 27
0.74 2.88 26.97
0.76 2.84 26.97
0.84 2.84 26.85
0.86 2.84 26.82
0.88 2.84 26.79
0.92 2.8 26.76
0.94 2.8 26.73
0.96 2.8 26.7
0.98 2.8 26.67
1 2.8 26.64
1.02 2.8 26.61
1.06 2.84 26.52
1.08 2.84 26.49
1.1 2.84 26.46
1.12 2.88 26.4
1.12 2.92 26.37
1.14 2.96 26.31
1.14 3 26.28
1.16 3.04 26.22
1.16 3.08 26.19
1.16 3.12 26.16
1.16 3.16 26.13
1.16 3.2 26.1
1.14 3.2 26.01
1.14 3.24 25.98
1.12 3.2 25.92
1.1 3.2 25.89
1.1 3.24 25.86
1.06 3.2 25.77
0.96 3.16 25.65
0.98 3.2 25.65
1 3.2 25.68
1.02 3.2 25.71
0.94 3.16 25.62
0.94 3.12 25.59
0.88 3.08 25.53
0.86 3.08 25.5
0.86 3.04 25.47
0.84 3.04 25.44
0.84 3 25.41
0.8 2.96 25.38
0.78 2.96 25.35
0.04 -4.2 23.49
0.08 -4.16 23.46
0.1 -4.12 23.46
0.14 -4.08 23.43
0.16 -4.04 23.43
0.18 -4.04 23.4
0.22 -4 23.37
0.24 -3.96 23.37
0.26 -3.92 23.31
0.28 -3.92 23.34
0.26 -3.88 23.28
0.26 -3.84 23.25
0.28 -3.84 23.28
0.26 -3.8 23.22
0.28 -3.72 23.19
0.3 -3.68 23.19
0.3 -3.64 23.16
0.34 -3.48 23.1
0.36 -3.44 23.1
0.54 -2.96 23.01
0.56 -2.92 23.01
0.58 -2.88 23.01
0.6 -2.84 23.01
0.64 -2.72 22.98
0.66 -2.68 22.98
0.68 -2.6 22.95
0.7 -2.52 22.92
0.72 -2.48 22.92
0.74 -2.4 22.89
0.76 -2.36 22.89
0.8 -2.28 22.89
0.84 -2.16 22.86
0.86 -2.12 22.86
0.86 -2.08 22.83
0.86 -2.04 22.8
0.86 -1.96 22.74
0.88 -1.96 22.77
0.88 -1.92 22.74
0.9 -1.88 22.74
0.9 -1.84 22.71
0.9 -1.8 22.68
0.9 -1.72 22.68
0.9 -1.76 22.65
0.9 -1.68 22.65
0.92 -1.64 22.65
0.92 -1.6 22.62
0.94 -1.48 22.68
0.94 -1.52 22.65
0.94 -1.44 22.65
0.94 -1.32 22.68
0.94 -1.36 22.65
0.94 -1.24 22.68
0.94 -1.2 22.65
0.92 -1.12 22.62
0.94 -0.96 22.65
0.92 -1.04 22.62
0.92 -1.08 22.59
0.92 -0.88 22.62
0.94 -0.64 22.71
0.94 -0.68 22.68
0.92 -0.76 22.65
0.94 -0.56 22.71
0.94 -0.52 22.68
0.84 -0.04 22.53
0.94 -0.44 22.62
0.92 -0.4 22.62
0.92 -0.36 22.59
0.9 -0.32 22.59
0.88 -0.24 22.56
0.86 -0.2 22.56
0.68 1.16 23.55
0.66 1.04 23.49
0.66 0.96 23.43
0.66 0.92 23.4
0.68 0.88 23.34
0.7 0.88 23.31
0.72 0.84 23.25
0.72 0.72 23.16
0.7 0.64 23.13
0.7 0.52 23.04
0.72 0.52 23.01
0.74 0.52 22.98
0.74 0.48 22.95
0.76 0.48 22.92
0.78 0.44 22.86
0.78 0.4 22.83
0.8 0.36 22.77
0.82 0.32 22.71
0.8 0.28 22.71
0.8 0.24 22.68
0.8 0.2 22.65
0.84 0.08 22.56
0.82 0.16 22.59
0.82 0.12 22.56
-1.8 1.6 23.85
-1.8 1.64 23.88
-1.8 1.76 23.97
-1.8 1.8 24
-1.8 1.88 24.06
-1.8 1.84 24.03
-1.86 1.36 23.76
-1.86 1.32 23.73
-1.88 1.28 23.73
-1.76 2 24.15
-1.76 1.96 24.18
-1.74 1.96 24.21
-1.72 1.96 24.24
-1.7 1.96 24.27
-1.66 1.96 24.33
-1.62 1.96 24.33
-1.94 1.12 23.7
-1.94 1.08 23.67
-1.94 1.04 23.64
-1.96 0.92 23.58
-1.96 0.88 23.55
-1.6 2 24.33
-1.58 2.04 24.33
-1.56 2.08 24.33
-1.54 2.08 24.36
-1.52 2.12 24.36
-1.5 2.16 24.36
-1.48 2.2 24.36
-1.44 2.24 24.39
-1.42 2.28 24.39
-1.4 2.32 24.39
-1.36 2.36 24.42
-1.34 2.44 24.39
-1.34 2.4 24.42
-1.28 2.52 24.42
-1.22 2.6 24.45
-1.2 2.68 24.42
-1.16 2.8 24.39
-1.12 2.84 24.42
-1.1 2.88 24.42
-1.08 2.92 24.42
-1.06 3 24.39
-1.06 2.96 24.42
-1.04 3.04 24.39
-1.02 3.08 24.39
-0.98 3.12 24.36
-0.96 3.2 24.33
-0.94 3.24 24.27
-0.92 3.28 24.27
-0.9 3.36 24.24
-0.88 3.48 24.18
-0.88 3.48 24.12
-0.86 3.48 24.09
-0.84 3.44 24.03
-0.82 3.44 24
-0.8 3.4 23.94
-0.78 3.4 23.91
-0.78 3.36 23.88
-0.74 3.32 23.85
-0.74 3.32 23.79
-0.72 3.28 23.79
-0.72 3.24 23.76
-0.72 3.2 23.73
-0.7 3.16 23.67
-0.68 3.16 23.7
-0.68 3.12 23.67
-0.68 3.08 23.64
-2.02 0.76 23.55
-2.02 0.72 23.52
-0.66 3.04 23.58
-0.66 3 23.55
-0.66 2.96 23.52
-0.64 2.92 23.46
-0.62 2.92 23.43
-0.62 2.88 23.4
-0.62 2.84 23.37
-0.6 2.8 23.37
-0.6 2.76 23.34
-0.58 2.72 23.28
-0.58 2.68 23.25
-0.58 2.64 23.22
-0.52 2.36 22.98
-0.5 2.32 22.98
-0.48 2.32 22.95
-0.46 2.32 22.98
-0.46 2.28 22.95
-0.46 2.24 22.92
-0.46 2.2 22.89
-0.56 2.64 23.19
-0.54 2.6 23.13
-0.54 2.56 23.1
-0.54 2.52 23.07
-0.52 2.48 23.01
-0.52 2.44 22.98
-0.52 2.4 22.95
-0.2 1.88 22.74
-0.2 1.84 22.71
-0.18 1.8 22.71
-0.14 1.84 22.74
-0.12 1.84 22.77
-0.12 1.8 22.74
-0.1 1.8 22.77
-0.1 1.76 22.74
-0.14 1.72 22.71
-0.12 1.68 22.71
-0.08 1.72 22.74
-0.08 1.68 22.71
-0.14 1.52 22.68
-0.14 1.48 22.65
-0.14 1.4 22.65
-0.12 1.36 22.65
-0.16 1.44 22.65
-0.12 1.32 22.62
-0.1 1.28 22.62
-0.04 1.16 22.62
-0.02 1.2 22.62
0.1 1.16 22.77
0.08 1.2 22.71
0.12 1.16 22.8
0.14 1.2 22.8
0.16 1.2 22.83
0.18 1.24 22.89
0.2 1.2 22.89
0.2 1.16 22.92
0.2 1.12 22.95
0.22 1.12 22.98
0.24 1.12 23.01
0.26 1.12 23.04
0.28 1.08 23.1
0.3 1.12 23.1
0.34 1.12 23.16
0.36 1.12 23.19
0.38 1.04 23.28
0.42 1.08 23.31
0.44 1.08 23.34
0.48 1.12 23.37
0.5 1.12 23.4
0.02 1.16 22.65
0.5 1.16 23.43
0.5 1.12 23.46
0.52 1.12 23.43
0.56 1.16 23.46
0.6 1.2 23.49
0.66 1.24 23.55
0.68 1.24 23.58
-0.44 2.16 22.83
-0.42 2.08 22.74
-0.42 2 22.68
-0.38 1.88 22.65
-0.4 1.92 22.65
-0.42 1.96 22.65
-0.32 1.84 22.65
-0.28 1.88 22.68
-0.26 1.84 22.68
0.76 2.96 25.35
0.76 3 25.38
0.78 3 25.41
0.58 3.28 25.62
0.62 3.24 25.59
0.66 3.2 25.56
0.7 3.16 25.53
0.74 3.12 25.5
0.76 3.08 25.5
0.76 3.08 25.44
0.78 3.08 25.47
0.78 3.04 25.44
0.32 3.72 26.16
0.38 3.68 26.1
0.44 3.64 26.04
0.46 3.64 26.01
0.5 3.6 25.98
0.56 3.56 25.92
0.58 3.48 25.83
0.6 3.48 25.86
0.58 3.32 25.65
0.6 3.32 25.68
0.6 3.28 25.65
0.6 3.36 25.71
0.6 3.4 25.74
0.6 3.44 25.77
0.62 3.44 25.8
0.26 3.8 26.43
0.32 3.76 26.25
0.34 3.76 26.22
0.3 3.8 26.31
0.32 3.8 26.28
0.3 3.8 26.43
0.32 3.8 26.4
0.32 3.8 26.34
0.28 3.84 26.49
-2.02 0.68 23.49
-2.02 0.64 23.46
-2.04 0.56 23.43
-2.04 0.52 23.4
-2.04 0.48 23.37
-2.04 0.44 23.34
-2.04 0.4 23.31
-2.02 0.36 23.25
-2.02 0.32 23.22
-2.02 0.28 23.19
-2.02 0.24 23.16
-2.02 0.2 23.13
-2.02 0.16 23.1
-2.02 0.12 23.07
-2.02 -0.08 23.1
-2.02 -0.04 23.07
-2 0.04 23.04
-1.82 -0.52 23.07
-1.84 -0.48 23.07
-1.8 -0.52 23.04
-1.88 -0.4 23.07
-1.86 -0.4 23.04
-1.78 -0.6 23.07
-1.78 -0.56 23.04
-1.92 -0.36 23.1
-1.9 -0.36 23.07
-1.88 -0.36 23.04
-1.92 -0.32 23.07
-1.9 -0.32 23.04
-1.94 -0.28 23.07
-1.92 -0.28 23.04
-1.96 -0.24 23.07
-1.98 -0.2 23.07
-1.76 -0.6 23.04
-1.72 -0.76 23.1
-1.72 -0.72 23.07
-1.72 -0.68 23.04
-1.7 -0.88 23.16
-1.7 -0.84 23.13
-1.68 -0.92 23.16
-1.66 -1 23.19
-1.62 -1.08 23.19
-1.6 -1.12 23.19
-1.58 -1.16 23.19
-1.56 -1.16 23.16
-1.54 -1.2 23.16
-1.52 -1.24 23.16
-1.5 -1.28 23.16
-1.48 -1.32 23.16
-1.46 -1.32 23.13
-2 -0.16 23.07
-1.34 -1.56 23.13
-1.32 -1.6 23.13
-1.3 -1.64 23.13
-2 -0.12 23.04
-1.28 -1.68 23.13
-1.26 -1.72 23.13
-1.26 -1.76 23.16
-1.24 -1.8 23.16
-1.22 -1.84 23.16
-1.2 -1.88 23.16
-1.2 -1.92 23.19
-1.18 -1.96 23.19
-1.16 -2 23.19
-1.16 -2.04 23.22
-1.14 -2.12 23.25
-1.12 -2.2 23.28
-1.1 -2.2 23.31
-1.06 -2.36 23.31
-1 -2.52 23.34
-0.98 -2.56 23.34
-0.98 -2.6 23.37
-0.96 -2.6 23.4
-0.98 -2.64 23.4
-0.96 -2.68 23.4
-0.94 -2.72 23.4
-0.92 -2.76 23.4
-0.9 -2.84 23.43
-0.88 -2.92 23.46
-0.86 -2.96 23.46
-0.84 -3 23.46
-0.78 -3.16 23.49
-0.76 -3.2 23.49
-0.74 -3.24 23.49
-0.72 -3.28 23.49
-0.7 -3.32 23.49
-0.68 -3.36 23.49
-0.66 -3.4 23.49
-0.64 -3.44 23.49
-0.56 -3.56 23.46
-0.54 -3.6 23.46
-0.52 -3.64 23.46
-0.5 -3.68 23.46
-0.46 -3.72 23.43
-0.44 -3.76 23.43
-0.4 -3.8 23.4
-0.38 -3.84 23.4
-0.34 -3.88 23.37
-0.32 -3.92 23.37
-0.3 -3.96 23.37
-0.28 -4 23.37
-0.24 -4.08 23.37
-0.18 -4.16 23.4
-0.14 -4.2 23.43
-0.12 -4.2 23.46
-0.1 -4.2 23.49
-0.06 -4.24 23.52
-0.04 -4.24 23.55
0 -4.2 23.52
0.02 -4.2 23.49
0.1 4 27
0.14 4 26.88
0.1 3.84 26.82
0.26 3.88 26.61
0.26 3.84 26.58
0.26 3.92 26.64
0.1 3.96 27.09
0.12 4 27.03
0.08 3.96 27.18
0.08 3.92 27.21
0.1 3.84 27.24
0.1 3.8 27.27
0.12 3.72 27.3
0.12 3.68 27.33
0.12 3.64 27.36
0.14 3.6 27.36
0.14 3.56 27.39
0.16 3.52 27.39
0.22 3.44 27.36
0.24 3.4 27.36
0.26 3.36 27.36
0.28 3.32 27.36
0.3 3.28 27.36
0.34 3.24 27.33
0.38 3.2 27.3
0.42 3.16 27.27
0.46 3.12 27.24
0.5 3.08 27.21
0.52 3.04 27.21
0.54 3 27.21
0.56 3 27.18
0.58 3 27.15
0.6 2.96 27.15
0.62 3 27.09
0.68 2.96 27.03
0.72 2.92 27
0.76 2.88 26.97
0.78 2.84 26.97
0.8 2.84 26.94
0.82 2.84 26.91
0.84 2.84 26.88
0.86 2.84 26.85
0.88 2.84 26.82
0.9 2.84 26.79
0.92 2.84 26.76
1.02 2.84 26.61
1.04 2.84 26.58
1.06 2.84 26.55
1.08 2.88 26.49
1.1 2.88 26.46
1.12 2.88 26.43
1.12 2.92 26.4
1.14 2.96 26.34
1.14 3 26.31
1.14 3 26.25
1.16 3.08 26.22
1.16 3.04 26.25
1.16 3.12 26.19
1.16 3.16 26.16
1.14 3.2 26.1
1.14 3.16 26.07
1.14 3.2 26.04
1.12 3.24 25.98
1.12 3.2 25.95
1.12 3.24 25.92
1.06 3.24 25.83
1.08 3.24 25.86
1.04 3.24 25.8
1.04 3.24 25.74
0.96 3.2 25.65
0.98 3.2 25.68
1 3.2 25.71
0.92 3.16 25.62
0.92 3.12 25.59
0.9 3.12 25.56
0.84 3.08 25.5
0.84 3.04 25.47
0.82 3.04 25.44
0.82 3 25.41
0.78 2.96 25.38
0.04 -4.2 23.52
0.06 -4.2 23.49
0.08 -4.16 23.49
0.12 -4.12 23.46
0.16 -4.08 23.43
0.18 -4.04 23.43
0.2 -4.04 23.4
0.24 -4 23.37
0.26 -3.96 23.37
0.28 -3.96 23.34
0.28 -3.92 23.31
0.28 -3.88 23.28
0.28 -3.84 23.25
0.28 -3.8 23.22
0.28 -3.76 23.19
0.3 -3.72 23.19
0.32 -3.64 23.16
0.32 -3.6 23.13
0.34 -3.56 23.13
0.34 -3.52 23.1
0.38 -3.4 23.07
0.38 -3.36 23.04
0.4 -3.32 23.04
0.42 -3.28 23.04
0.44 -3.24 23.04
0.46 -3.2 23.04
0.46 -3.16 23.01
0.48 -3.12 23.01
0.5 -3.08 23.01
0.52 -3.04 23.01
0.54 -3 23.01
0.62 -2.8 22.98
0.64 -2.76 22.98
0.66 -2.68 22.95
0.68 -2.64 22.95
0.7 -2.56 22.92
0.72 -2.48 22.89
0.74 -2.44 22.89
0.78 -2.36 22.89
0.8 -2.32 22.89
0.8 -2.28 22.86
0.82 -2.24 22.86
0.82 -2.2 22.83
0.84 -2.2 22.86
0.82 -2.16 22.8
0.84 -2.16 22.83
0.84 -2.12 22.8
0.86 -2.12 22.83
0.86 -2.08 22.8
0.84 -2 22.77
0.86 -1.96 22.71
0.88 -1.96 22.74
0.88 -1.92 22.71
0.9 -1.88 22.71
0.9 -1.84 22.68
0.9 -1.8 22.65
0.9 -1.72 22.65
0.9 -1.76 22.62
0.9 -1.68 22.62
0.92 -1.64 22.62
0.92 -1.56 22.62
0.92 -1.6 22.59
0.94 -1.48 22.65
0.94 -1.28 22.68
0.94 -1.32 22.65
0.92 -1.4 22.62
0.94 -1.24 22.65
0.92 -1.16 22.62
0.92 -1.12 22.59
