ply
format ascii 1.0
element vertex 1415
property float x
property float y
property float z
property float nx
property float ny
property float nz
property uchar red
property uchar green
property uchar blue
end_header
-2.53333 7.46667 25.25 0 0 0 0 255 0
-2.43333 8.13333 25 0 0 0 0 255 0
-2.43333 8.2 24.95 0 0 0 0 255 0
-2.4 8.2 24.9 0 0 0 0 255 0
-2.36667 8.2 24.85 0 0 0 0 255 0
-2.33333 8.2 24.8 0 0 0 0 255 0
-2.26667 8.26667 24.75 0 0 0 0 255 0
-2.23333 8.26667 24.7 0 0 0 0 255 0
-2.2 8.26667 24.65 0 0 0 0 255 0
-2.16667 8.26667 24.6 0 0 0 0 255 0
-2.1 8.33333 24.55 0 0 0 0 255 0
-2 8.33333 24.4 0 0 0 0 255 0
-1.96667 8.26667 24.4 0 0 0 0 255 0
-1.9 8.26667 24.4 0 0 0 0 255 0
-1.86667 8.2 24.4 0 0 0 0 255 0
-1.8 8.2 24.5 0 0 0 0 255 0
-1.76667 8.2 24.55 0 0 0 0 255 0
-1.73333 8.2 24.6 0 0 0 0 255 0
-1.7 8.2 24.65 0 0 0 0 255 0
-1.66667 8.2 24.7 0 0 0 0 255 0
-1.63333 8.26667 24.8 0 0 0 0 255 0
-1.6 8.26667 24.85 0 0 0 0 255 0
-1.6 8.33333 24.9 0 0 0 0 255 0
-1.56667 8.26667 24.9 0 0 0 0 255 0
-1.63333 8.46667 24.95 0 0 0 0 255 0
-1.7 8.6 24.95 0 0 0 0 255 0
-1.9 8.53333 25.2 0 0 0 0 255 0
-1.9 8.6 25.15 0 0 0 0 255 0
-1.86667 8.6 25.1 0 0 0 0 255 0
-1.76667 8.66667 25 0 0 0 0 255 0
-1.73333 8.66667 24.95 0 0 0 0 255 0
-1.96667 8.53333 25.3 0 0 0 0 255 0
-1.96667 8.46667 25.35 0 0 0 0 255 0
-2.03333 8 25.7 0 0 0 0 255 0
-2 8.13333 25.65 0 0 0 0 255 0
-2 8.33333 25.5 0 0 0 0 255 0
3.2 -1.66667 24.9 0 0 0 0 255 0
3.23333 -1.73333 24.9 0 0 0 0 255 0
3.26667 -1.8 24.9 0 0 0 0 255 0
3.33333 -2 24.95 0 0 0 0 255 0
3.3 -2.06667 25.05 0 0 0 0 255 0
3.36667 -2.06667 24.95 0 0 0 0 255 0
3.36667 -2.13333 25 0 0 0 0 255 0
3.4 -2.2 25 0 0 0 0 255 0
3.43333 -2.26667 25 0 0 0 0 255 0
3.46667 -2.33333 25 0 0 0 0 255 0
3.53333 -2.4 24.95 0 0 0 0 255 0
3.56667 -2.4 24.9 0.706107 -0.447577 0.548715 0 255 0
3.6 -2.4 24.85 0 0 0 0 255 0
3.16667 -1.4 24.75 0 0 0 0 255 0
3.16667 -1.46667 24.8 0 0 0 0 255 0
3.16667 -1.53333 24.85 0 0 0 0 255 0
3.23333 -1.4 24.65 -0.813729 0.398065 -0.423544 0 255 0
3.23333 -1.46667 24.6 -0.762092 0.333261 -0.555115 0 255 0
3.2 -1.73333 24.55 -0.725529 0.218511 -0.65258 0 255 0
3.26667 -1.4 24.6 -0.587125 0.494696 -0.64075 0 255 0
3.33333 -1.46667 24.55 0 0 0 0 255 0
3.36667 -1.46667 24.5 0 0 0 0 255 0
3.43333 -1.53333 24.45 0 0 0 0 255 0
3.43333 -1.6 24.4 0 0 0 0 255 0
3.46667 -1.66667 24.4 0 0 0 0 255 0
3.5 -1.73333 24.4 0 0 0 0 255 0
3.53333 -1.8 24.4 0 0 0 0 255 0
3.56667 -1.8 24.45 0 0 0 0 255 0
3.6 -1.86667 24.45 0 0 0 0 255 0
3.63333 -2.06667 24.55 0 0 0 0 255 0
3.63333 -2.13333 24.6 0 0 0 0 255 0
3.63333 -2.2 24.65 0 0 0 0 255 0
3.63333 -2.26667 24.7 0 0 0 0 255 0
3.63333 -2.33333 24.75 0.848896 -0.462544 -0.255789 0 255 0
0.866667 6.46667 28.5 0 0 0 0 255 0
0.866667 6.33333 28.6 0 0 0 0 255 0
0.9 6.2 28.65 0 0 0 0 255 0
0.966667 6.13333 28.6 0 0 0 0 255 0
1 6.06667 28.6 0 0 0 0 255 0
1.06667 6 28.55 0 0 0 0 255 0
1 6.4 28.25 0 0 0 0 255 0
1 6.33333 28.2 0 0 0 0 255 0
1.16667 6.4 28.1 0 0 0 0 255 0
1.2 6.4 28.05 0 0 0 0 255 0
1.3 6.4 28 0 0 0 0 255 0
1.33333 6.4 27.95 0 0 0 0 255 0
1.4 6.33333 27.9 0 0 0 0 255 0
1.43333 6.26667 27.9 0 0 0 0 255 0
1.46667 6.2 27.9 0 0 0 0 255 0
1.5 6.13333 27.9 0 0 0 0 255 0
1.53333 6 27.95 0 0 0 0 255 0
1.53333 5.73333 28.15 0 0 0 0 255 0
1.5 5.66667 28.25 0 0 0 0 255 0
1.46667 5.66667 28.3 0 0 0 0 255 0
1.43333 5.66667 28.35 0 0 0 0 255 0
1.33333 5.73333 28.45 0 0 0 0 255 0
1.23333 5.86667 28.5 0 0 0 0 255 0
1.26667 5.8 28.5 0 0 0 0 255 0
1.16667 5.93333 28.55 0 0 0 0 255 0
1.13333 6 28.55 0 0 0 0 255 0
-2.7 1 18.7 0 0 0 0 255 0
-2.7 1.06667 18.75 0 0 0 0 255 0
-2.7 0.8 18.55 0 0 0 0 255 0
-2.66667 0.733333 18.55 0 0 0 0 255 0
-2.63333 0.666667 18.55 0 0 0 0 255 0
-2.56667 0.6 18.6 0 0 0 0 255 0
-2.5 0.533333 18.65 0 0 0 0 255 0
-2.7 1.13333 18.8 0 0 0 0 255 0
-2.7 1.2 18.85 0 0 0 0 255 0
-2.63333 1.2 18.95 0 0 0 0 255 0
-2.5 1 19.2 0 0 0 0 255 0
-2.46667 0.933333 19.2 0 0 0 0 255 0
-2.43333 0.8 19.25 0 0 0 0 255 0
-2.36667 0.733333 19.2 0 0 0 0 255 0
-2.3 0.6 19 0 0 0 0 255 0
-2.33333 0.533333 18.9 0 0 0 0 255 0
-2.43333 0.466667 18.7 0 0 0 0 255 0
-2.4 0.466667 18.75 0 0 0 0 255 0
-2.36667 0.466667 18.8 0 0 0 0 255 0
-2.46667 0.533333 18.7 0 0 0 0 255 0
-2.53333 7.4 25.25 0 0 0 0 255 0
-2.53333 7.4 25.35 0 0 0 0 255 0
-2.53333 7.46667 25.4 0 0 0 0 255 0
-2.5 7.46667 25.45 0 0 0 0 255 0
-2.46667 7.4 25.45 0 0 0 0 255 0
-2.46667 7.4 25.55 0 0 0 0 255 0
-2.46667 7.33333 25.6 0 0 0 0 255 0
-2.43333 7.33333 25.65 0 0 0 0 255 0
-2.36667 7.4 25.7 0 0 0 0 255 0
-2.33333 7.46667 25.7 0 0 0 0 255 0
-2.3 7.53333 25.7 0 0 0 0 255 0
-2.13333 7.8 25.75 0 0 0 0 255 0
-2.1 7.86667 25.75 0 0 0 0 255 0
-2.53333 7.8 25.15 0 0 0 0 255 0
-2.53333 7.73333 25.2 0 0 0 0 255 0
-2.56667 7.66667 25.2 0 0 0 0 255 0
-2.5 7.86667 25.15 0 0 0 0 255 0
-2.5 7.93333 25.1 0 0 0 0 255 0
-2.46667 8 25.1 0 0 0 0 255 0
-2.53333 7.46667 25.3 0 0 0 0 255 0
-2.56667 7.53333 25.3 0 0 0 0 255 0
-2.46667 8.13333 25 0 0 0 0 255 0
-2.46667 8.06667 25.05 0 0 0 0 255 0
-2.43333 8.26667 24.95 0 0 0 0 255 0
-2.33333 8.26667 24.8 0 0 0 0 255 0
-2.3 8.26667 24.75 0 0 0 0 255 0
-2.13333 8.33333 24.55 0 0 0 0 255 0
-2.1 8.33333 24.5 0 0 0 0 255 0
-2.06667 8.33333 24.45 0 0 0 0 255 0
-2.03333 8.33333 24.4 0 0 0 0 255 0
-1.93333 8.26667 24.4 0 0 0 0 255 0
-1.86667 8.26667 24.4 0 0 0 0 255 0
-1.83333 8.2 24.4 0 0 0 0 255 0
-1.8 8.2 24.45 0 0 0 0 255 0
-1.76667 8.2 24.5 0 0 0 0 255 0
-1.73333 8.2 24.55 0 0 0 0 255 0
-1.7 8.2 24.6 0 0 0 0 255 0
-1.63333 8.26667 24.75 0 0 0 0 255 0
-1.6 8.26667 24.8 0 0 0 0 255 0
-1.56667 8.26667 24.85 0 0 0 0 255 0
-1.6 8.4 24.9 0 0 0 0 255 0
-1.66667 8.6 24.95 0 0 0 0 255 0
-1.63333 8.53333 24.95 0 0 0 0 255 0
-1.6 8.46667 24.95 0 0 0 0 255 0
-1.96667 8.53333 25.25 0 0 0 0 255 0
-1.93333 8.53333 25.2 0 0 0 0 255 0
-1.93333 8.6 25.15 0 0 0 0 255 0
-1.83333 8.66667 25.05 0 0 0 0 255 0
-1.8 8.66667 25 0 0 0 0 255 0
-1.76667 8.66667 24.95 0 0 0 0 255 0
-2 8.53333 25.3 0 0 0 0 255 0
-2 8.46667 25.35 0 0 0 0 255 0
-2.06667 7.93333 25.75 0 0 0 0 255 0
-2.03333 8.06667 25.7 0 0 0 0 255 0
-2 8.26667 25.6 0 0 0 0 255 0
-2 8.2 25.65 0 0 0 0 255 0
-2 8.13333 25.7 0 0 0 0 255 0
-2 8.33333 25.55 0 0 0 0 255 0
-2.03333 8.33333 25.5 0 0 0 0 255 0
-2.03333 8.4 25.45 0 0 0 0 255 0
-2.03333 8.46667 25.4 0 0 0 0 255 0
3.2 -1.6 24.9 0 0 0 0 255 0
3.23333 -1.66667 24.9 0 0 0 0 255 0
3.3 -1.86667 24.95 0 0 0 0 255 0
3.33333 -1.93333 24.95 0 0 0 0 255 0
3.36667 -2 24.95 0 0 0 0 255 0
3.4 -2.06667 24.95 0 0 0 0 255 0
3.4 -2.13333 25 0 0 0 0 255 0
3.43333 -2.2 25 0 0 0 0 255 0
3.46667 -2.26667 25 0 0 0 0 255 0
3.5 -2.33333 25 0 0 0 0 255 0
3.16667 -1.4 24.8 0 0 0 0 255 0
3.16667 -1.46667 24.85 0 0 0 0 255 0
3.2 -1.33333 24.7 0 0 0 0 255 0
3.23333 -1.33333 24.65 -0.88845 0.290758 -0.35513 0 255 0
3.63333 -2.33333 24.8 0.869384 -0.493485 -0.0253997 0 255 0
3.3 -1.4 24.6 0 0 0 0 255 0
3.4 -1.46667 24.5 0 0 0 0 255 0
3.43333 -1.46667 24.45 0 0 0 0 255 0
3.46667 -1.53333 24.45 0 0 0 0 255 0
3.46667 -1.6 24.4 0 0 0 0 255 0
3.5 -1.66667 24.4 0 0 0 0 255 0
3.53333 -1.73333 24.4 0 0 0 0 255 0
3.6 -1.8 24.45 0 0 0 0 255 0
3.63333 -1.93333 24.5 0 0 0 0 255 0
3.63333 -2 24.55 0 0 0 0 255 0
3.66667 -2.13333 24.6 0 0 0 0 255 0
3.66667 -2.2 24.65 0 0 0 0 255 0
3.66667 -2.33333 24.75 0 0 0 0 255 0
0.866667 6.53333 28.5 0 0 0 0 255 0
0.833333 6.4 28.55 0 0 0 0 255 0
0.866667 6.33333 28.65 0 0 0 0 255 0
0.9 6.26667 28.65 0 0 0 0 255 0
0.933333 6.2 28.65 0 0 0 0 255 0
1.03333 6.06667 28.6 0 0 0 0 255 0
1.06667 6 28.6 0 0 0 0 255 0
1 6.46667 28.25 0 0 0 0 255 0
1 6.26667 28.2 0 0 0 0 255 0
1.03333 6.33333 28.2 0 0 0 0 255 0
1.13333 6.4 28.1 0 0 0 0 255 0
1.3 6.46667 28 0 0 0 0 255 0
1.36667 6.4 27.95 0 0 0 0 255 0
1.43333 6.33333 27.9 0 0 0 0 255 0
1.46667 6.26667 27.9 0 0 0 0 255 0
1.5 6.2 27.9 0 0 0 0 255 0
1.53333 6.06667 27.95 0 0 0 0 255 0
1.56667 5.93333 28 0 0 0 0 255 0
1.56667 5.86667 28.05 0 0 0 0 255 0
1.56667 5.8 28.1 0 0 0 0 255 0
1.53333 5.73333 28.2 0 0 0 0 255 0
1.5 5.66667 28.3 0 0 0 0 255 0
1.4 5.73333 28.4 0 0 0 0 255 0
1.36667 5.73333 28.45 0 0 0 0 255 0
1.3 5.8 28.5 0 0 0 0 255 0
1.26667 5.86667 28.5 0 0 0 0 255 0
1.2 5.93333 28.55 0 0 0 0 255 0
1.16667 6 28.55 0 0 0 0 255 0
1.1 6.06667 28.6 0 0 0 0 255 0
-2.7 1 18.65 0 0 0 0 255 0
-2.7 0.933333 18.6 0 0 0 0 255 0
-2.7 1.13333 18.75 0 0 0 0 255 0
-2.7 0.866667 18.55 0 0 0 0 255 0
-2.66667 0.8 18.55 0 0 0 0 255 0
-2.63333 0.733333 18.55 0 0 0 0 255 0
-2.6 0.666667 18.55 0 0 0 0 255 0
-2.56667 0.666667 18.6 0 0 0 0 255 0
-2.53333 0.6 18.6 0 0 0 0 255 0
-2.7 1.2 18.8 0 0 0 0 255 0
-2.66667 1.2 18.85 0 0 0 0 255 0
-2.63333 1.2 18.9 0 0 0 0 255 0
-2.6 1.2 18.95 0 0 0 0 255 0
-2.56667 1.2 19 0 0 0 0 255 0
-2.53333 1.2 19.05 0 0 0 0 255 0
-2.5 1.2 19.1 0 0 0 0 255 0
-2.5 1.13333 19.15 0 0 0 0 255 0
-2.46667 1.13333 19.1 0 0 0 0 255 0
-2.46667 1 19.2 0 0 0 0 255 0
-2.46667 1.06667 19.15 0 0 0 0 255 0
-2.43333 0.933333 19.2 0 0 0 0 255 0
-2.43333 0.866667 19.25 0 0 0 0 255 0
-2.4 0.8 19.25 0 0 0 0 255 0
-2.33333 0.733333 19.2 0 0 0 0 255 0
-2.3 0.733333 19.15 0 0 0 0 255 0
-2.3 0.6 18.95 0 0 0 0 255 0
-2.26667 0.666667 19.05 0 0 0 0 255 0
-2.26667 0.733333 19.1 0 0 0 0 255 0
-2.33333 0.533333 18.85 0 0 0 0 255 0
-2.43333 0.533333 18.7 0 0 0 0 255 0
-2.53333 7.4 25.3 0 0 0 0 255 0
-2.53333 7.46667 25.35 0 0 0 0 255 0
-2.53333 7.53333 25.4 0 0 0 0 255 0
-2.5 7.46667 25.5 0 0 0 0 255 0
-2.46667 7.4 25.6 0 0 0 0 255 0
-2.43333 7.4 25.65 0 0 0 0 255 0
-2.4 7.4 25.7 0 0 0 0 255 0
-2.36667 7.46667 25.7 0 0 0 0 255 0
-2.26667 7.6 25.75 0 0 0 0 255 0
-2.23333 7.66667 25.75 0 0 0 0 255 0
-2.2 7.73333 25.75 0 0 0 0 255 0
-2.16667 7.8 25.75 0 0 0 0 255 0
-2.13333 7.86667 25.75 0 0 0 0 255 0
-2.1 7.93333 25.75 0 0 0 0 255 0
-2.53333 7.86667 25.15 0 0 0 0 255 0
-2.56667 7.66667 25.25 0 0 0 0 255 0
-2.56667 7.6 25.3 0 0 0 0 255 0
-2.46667 8.06667 25.1 0 0 0 0 255 0
-2.56667 7.53333 25.35 0 0 0 0 255 0
-2.46667 8.2 25 0 0 0 0 255 0
-2.46667 8.13333 25.05 0 0 0 0 255 0
-2.43333 8.26667 24.9 0 0 0 0 255 0
-2.4 8.26667 24.85 0 0 0 0 255 0
-2.36667 8.26667 24.8 0 0 0 0 255 0
-2.26667 8.33333 24.7 0 0 0 0 255 0
-2.23333 8.33333 24.65 0 0 0 0 255 0
-2.2 8.33333 24.6 0 0 0 0 255 0
-2.16667 8.33333 24.55 0 0 0 0 255 0
-2.1 8.33333 24.45 0 0 0 0 255 0
-2 8.4 24.35 0 0 0 0 255 0
-1.96667 8.33333 24.35 0 0 0 0 255 0
-1.9 8.33333 24.35 0 0 0 0 255 0
-1.8 8.2 24.4 0 0 0 0 255 0
-1.76667 8.2 24.45 0 0 0 0 255 0
-1.73333 8.2 24.5 0 0 0 0 255 0
-1.66667 8.26667 24.65 0 0 0 0 255 0
-1.63333 8.26667 24.7 0 0 0 0 255 0
-1.6 8.26667 24.75 0 0 0 0 255 0
-1.56667 8.33333 24.85 0 0 0 0 255 0
-1.6 8.46667 24.9 0 0 0 0 255 0
-1.56667 8.4 24.9 0 0 0 0 255 0
-1.7 8.66667 24.9 0 0 0 0 255 0
-1.9 8.66667 25.1 0 0 0 0 255 0
-1.86667 8.66667 25.05 0 0 0 0 255 0
-1.83333 8.66667 25 0 0 0 0 255 0
-1.73333 8.73333 24.9 0 0 0 0 255 0
-2.03333 8.53333 25.3 0 0 0 0 255 0
-2.06667 8 25.75 0 0 0 0 255 0
-2.03333 8.13333 25.7 0 0 0 0 255 0
-2.03333 8.33333 25.55 0 0 0 0 255 0
-2.06667 8.4 25.45 0 0 0 0 255 0
-2.06667 8.46667 25.4 0 0 0 0 255 0
3.2 -1.46667 24.85 0 0 0 0 255 0
3.2 -1.53333 24.9 0 0 0 0 255 0
3.26667 -1.73333 24.95 0 0 0 0 255 0
3.3 -1.8 24.95 0 0 0 0 255 0
3.33333 -1.86667 24.95 0 0 0 0 255 0
3.36667 -1.93333 24.95 0 0 0 0 255 0
3.43333 -2.13333 25 0 0 0 0 255 0
3.46667 -2.2 25 0 0 0 0 255 0
3.5 -2.26667 25 0 0 0 0 255 0
3.53333 -2.33333 25 0 0 0 0 255 0
3.56667 -2.33333 24.95 0 0 0 0 255 0
3.6 -2.33333 24.9 0.66039 -0.514089 0.547355 0 255 0
3.63333 -2.33333 24.85 0.811443 -0.516293 0.273866 0 255 0
3.2 -1.4 24.8 0 0 0 0 255 0
3.2 -1.33333 24.75 0 0 0 0 255 0
3.23333 -1.33333 24.7 0 0 0 0 255 0
3.26667 -1.33333 24.65 -0.777575 0.44966 -0.439525 0 255 0
3.66667 -2.33333 24.8 0 0 0 0 255 0
3.33333 -1.4 24.6 0 0 0 0 255 0
3.36667 -1.4 24.55 0 0 0 0 255 0
3.43333 -1.46667 24.5 0 0 0 0 255 0
3.46667 -1.46667 24.45 0 0 0 0 255 0
3.5 -1.6 24.4 0 0 0 0 255 0
3.53333 -1.66667 24.4 0 0 0 0 255 0
3.56667 -1.73333 24.4 0 0 0 0 255 0
3.63333 -1.8 24.45 0 0 0 0 255 0
3.63333 -1.86667 24.5 0 0 0 0 255 0
3.66667 -1.93333 24.5 0 0 0 0 255 0
3.66667 -2 24.55 0 0 0 0 255 0
3.66667 -2.06667 24.6 0 0 0 0 255 0
3.66667 -2.2 24.7 0 0 0 0 255 0
3.66667 -2.26667 24.75 0 0 0 0 255 0
0.866667 6.6 28.5 0 0 0 0 255 0
0.833333 6.46667 28.55 0 0 0 0 255 0
0.833333 6.4 28.6 0 0 0 0 255 0
0.866667 6.33333 28.7 0 0 0 0 255 0
0.9 6.26667 28.7 0 0 0 0 255 0
0.966667 6.2 28.65 0 0 0 0 255 0
1 6.13333 28.65 0 0 0 0 255 0
1.03333 6.13333 28.6 0 0 0 0 255 0
1.06667 6.06667 28.6 0 0 0 0 255 0
1 6.46667 28.3 0 0 0 0 255 0
1.03333 6.46667 28.25 0 0 0 0 255 0
1.03333 6.4 28.2 0 0 0 0 255 0
1.2 6.46667 28.1 0 0 0 0 255 0
1.3 6.46667 28.05 0 0 0 0 255 0
1.33333 6.46667 28 0 0 0 0 255 0
1.36667 6.46667 27.95 0 0 0 0 255 0
1.4 6.4 27.95 0 0 0 0 255 0
1.46667 6.33333 27.9 0 0 0 0 255 0
1.5 6.26667 27.9 0 0 0 0 255 0
1.53333 6.13333 27.95 0 0 0 0 255 0
1.56667 6 28 0 0 0 0 255 0
1.56667 5.93333 28.05 0 0 0 0 255 0
1.56667 5.86667 28.1 0 0 0 0 255 0
1.53333 5.8 28.2 0 0 0 0 255 0
1.56667 5.8 28.15 0 0 0 0 255 0
1.53333 5.73333 28.25 0 0 0 0 255 0
1.46667 5.73333 28.35 0 0 0 0 255 0
1.43333 5.73333 28.4 0 0 0 0 255 0
1.36667 5.8 28.45 0 0 0 0 255 0
1.33333 5.8 28.5 0 0 0 0 255 0
1.3 5.86667 28.5 0 0 0 0 255 0
1.23333 5.93333 28.55 0 0 0 0 255 0
1.2 6 28.55 0 0 0 0 255 0
1.13333 6.06667 28.6 0 0 0 0 255 0
-2.7 1 18.6 0 0 0 0 255 0
-2.7 0.933333 18.55 0 0 0 0 255 0
-2.7 1.2 18.75 0 0 0 0 255 0
-2.66667 0.866667 18.55 0 0 0 0 255 0
-2.63333 0.8 18.55 0 0 0 0 255 0
-2.6 0.733333 18.55 0 0 0 0 255 0
-2.53333 0.666667 18.6 0 0 0 0 255 0
-2.5 0.6 18.6 0 0 0 0 255 0
-2.46667 0.6 18.65 0 0 0 0 255 0
-2.66667 1.2 18.8 0 0 0 0 255 0
-2.63333 1.2 18.85 0 0 0 0 255 0
-2.6 1.2 18.9 0 0 0 0 255 0
-2.56667 1.2 18.95 0 0 0 0 255 0
-2.53333 1.2 19 0 0 0 0 255 0
-2.5 1.2 19.05 0 0 0 0 255 0
-2.46667 1.2 19.1 0 0 0 0 255 0
-2.43333 1 19.2 0 0 0 0 255 0
-2.4 0.866667 19.25 0 0 0 0 255 0
-2.36667 0.8 19.25 0 0 0 0 255 0
-2.26667 0.733333 19.15 0 0 0 0 255 0
-2.3 0.6 18.9 0 0 0 0 255 0
-2.26667 0.6 18.95 0 0 0 0 255 0
-2.26667 0.666667 19 0 0 0 0 255 0
-2.23333 0.666667 19.05 0 0 0 0 255 0
-2.23333 0.733333 19.1 0 0 0 0 255 0
-2.36667 0.533333 18.75 0 0 0 0 255 0
-2.33333 0.533333 18.8 0 0 0 0 255 0
-2.4 0.533333 18.7 0 0 0 0 255 0
-2.53333 7.53333 25.45 0 0 0 0 255 0
-2.5 7.46667 25.55 0 0 0 0 255 0
-2.4 7.46667 25.7 0 0 0 0 255 0
-2.33333 7.53333 25.75 0 0 0 0 255 0
-2.3 7.6 25.75 0 0 0 0 255 0
-2.26667 7.66667 25.75 0 0 0 0 255 0
-2.53333 7.93333 25.15 0 0 0 0 255 0
-2.56667 7.8 25.2 0 0 0 0 255 0
-2.56667 7.73333 25.25 0 0 0 0 255 0
-2.56667 7.66667 25.3 0 0 0 0 255 0
-2.5 8 25.15 0 0 0 0 255 0
-2.56667 7.6 25.35 0 0 0 0 255 0
-2.46667 8.26667 25 0 0 0 0 255 0
-2.46667 8.26667 24.9 0 0 0 0 255 0
-2.43333 8.26667 24.85 0 0 0 0 255 0
-2.33333 8.33333 24.75 0 0 0 0 255 0
-2.3 8.33333 24.7 0 0 0 0 255 0
-2.26667 8.33333 24.65 0 0 0 0 255 0
-2.23333 8.33333 24.6 0 0 0 0 255 0
-2.2 8.33333 24.55 0 0 0 0 255 0
-2.13333 8.4 24.5 0 0 0 0 255 0
-2.06667 8.4 24.4 0 0 0 0 255 0
-2.03333 8.4 24.35 0 0 0 0 255 0
-1.93333 8.33333 24.35 0 0 0 0 255 0
-1.86667 8.33333 24.35 0 0 0 0 255 0
-1.83333 8.26667 24.35 0 0 0 0 255 0
-1.76667 8.2 24.4 0 0 0 0 255 0
-1.7 8.26667 24.55 0 0 0 0 255 0
-1.66667 8.26667 24.6 0 0 0 0 255 0
-1.63333 8.26667 24.65 0 0 0 0 255 0
-1.6 8.26667 24.7 0 0 0 0 255 0
-1.56667 8.26667 24.75 0 0 0 0 255 0
-1.56667 8.4 24.85 0 0 0 0 255 0
-1.56667 8.33333 24.8 0 0 0 0 255 0
-1.53333 8.33333 24.85 0 0 0 0 255 0
-1.6 8.53333 24.9 0 0 0 0 255 0
-1.66667 8.66667 24.9 0 0 0 0 255 0
-1.63333 8.6 24.9 0 0 0 0 255 0
-2 8.6 25.25 0 0 0 0 255 0
-1.96667 8.6 25.2 0 0 0 0 255 0
-1.96667 8.66667 25.15 0 0 0 0 255 0
-1.93333 8.66667 25.1 0 0 0 0 255 0
-1.9 8.66667 25.05 0 0 0 0 255 0
-1.8 8.73333 24.95 0 0 0 0 255 0
-1.76667 8.73333 24.9 0 0 0 0 255 0
-1.73333 8.73333 24.85 0 0 0 0 255 0
-2.03333 8.53333 25.35 0 0 0 0 255 0
-2.06667 8.06667 25.75 0 0 0 0 255 0
-2.03333 8.26667 25.65 0 0 0 0 255 0
-2.03333 8.2 25.7 0 0 0 0 255 0
-2.03333 8.33333 25.6 0 0 0 0 255 0
-2.06667 8.4 25.5 0 0 0 0 255 0
3.23333 -1.53333 24.9 0 0 0 0 255 0
3.23333 -1.6 24.95 0 0 0 0 255 0
3.26667 -1.66667 24.95 0 0 0 0 255 0
3.3 -1.73333 24.95 0 0 0 0 255 0
3.4 -2 25 0 0 0 0 255 0
3.43333 -2.06667 25 0 0 0 0 255 0
3.46667 -2.13333 25 0 0 0 0 255 0
3.5 -2.2 25 0 0 0 0 255 0
3.53333 -2.26667 25 0 0 0 0 255 0
3.6 -2.33333 24.95 0 0 0 0 255 0
3.63333 -2.33333 24.9 0.729619 -0.492984 0.473944 0 255 0
3.66667 -2.33333 24.85 0 0 0 0 255 0
3.23333 -1.33333 24.75 0 0 0 0 255 0
3.3 -1.33333 24.65 0 0 0 0 255 0
3.33333 -1.33333 24.6 0 0 0 0 255 0
3.4 -1.4 24.55 0 0 0 0 255 0
3.5 -1.46667 24.45 0 0 0 0 255 0
3.5 -1.53333 24.4 0 0 0 0 255 0
3.53333 -1.53333 24.45 0 0 0 0 255 0
3.53333 -1.6 24.4 0 0 0 0 255 0
3.56667 -1.66667 24.4 0 0 0 0 255 0
3.6 -1.73333 24.4 0 0 0 0 255 0
3.63333 -1.73333 24.45 0 0 0 0 255 0
3.66667 -1.8 24.45 0 0 0 0 255 0
3.66667 -1.86667 24.5 0 0 0 0 255 0
3.7 -2.06667 24.6 0 0 0 0 255 0
3.7 -2.13333 24.65 0 0 0 0 255 0
3.7 -2.2 24.7 0 0 0 0 255 0
3.7 -2.26667 24.75 0 0 0 0 255 0
0.866667 6.6 28.55 0 0 0 0 255 0
0.833333 6.53333 28.55 0 0 0 0 255 0
0.9 6.53333 28.45 0 0 0 0 255 0
0.833333 6.46667 28.6 0 0 0 0 255 0
0.833333 6.4 28.65 0 0 0 0 255 0
0.866667 6.33333 28.75 0 0 0 0 255 0
0.9 6.26667 28.75 0 0 0 0 255 0
0.933333 6.26667 28.7 0 0 0 0 255 0
1 6.53333 28.3 0 0 0 0 255 0
1.03333 6.53333 28.25 0 0 0 0 255 0
1.06667 6.4 28.2 0 0 0 0 255 0
1.1 6.4 28.15 0 0 0 0 255 0
1.13333 6.46667 28.15 0 0 0 0 255 0
1.23333 6.46667 28.1 0 0 0 0 255 0
1.26667 6.46667 28.05 0 0 0 0 255 0
1.36667 6.46667 28 0 0 0 0 255 0
1.43333 6.4 27.95 0 0 0 0 255 0
1.5 6.33333 27.9 0 0 0 0 255 0
1.53333 6.26667 27.9 0 0 0 0 255 0
1.53333 6.2 27.95 0 0 0 0 255 0
1.56667 6.13333 27.95 0 0 0 0 255 0
1.56667 6.06667 28 0 0 0 0 255 0
1.56667 5.93333 28.1 0 0 0 0 255 0
1.56667 5.86667 28.15 0 0 0 0 255 0
1.53333 5.8 28.25 0 0 0 0 255 0
1.5 5.73333 28.35 0 0 0 0 255 0
1.53333 5.73333 28.3 0 0 0 0 255 0
1.43333 5.8 28.4 0 0 0 0 255 0
1.4 5.8 28.45 0 0 0 0 255 0
1.33333 5.86667 28.5 0 0 0 0 255 0
1.23333 6 28.55 0 0 0 0 255 0
1.26667 5.93333 28.55 0 0 0 0 255 0
1.16667 6.06667 28.6 0 0 0 0 255 0
1.13333 6.06667 28.65 0 0 0 0 255 0
1.1 6.13333 28.65 0 0 0 0 255 0
-2.66667 1.06667 18.65 0 0 0 0 255 0
-2.66667 0.933333 18.55 0 0 0 0 255 0
-2.66667 1.2 18.75 0 0 0 0 255 0
-2.66667 1.13333 18.7 0 0 0 0 255 0
-2.63333 0.866667 18.55 0 0 0 0 255 0
-2.56667 0.733333 18.55 0 0 0 0 255 0
-2.5 0.666667 18.6 0 0 0 0 255 0
-2.43333 0.6 18.65 0 0 0 0 255 0
-2.63333 1.2 18.8 0 0 0 0 255 0
-2.5 1.2 19 0 0 0 0 255 0
-2.46667 1.2 19.15 0 0 0 0 255 0
-2.43333 1.06667 19.2 0 0 0 0 255 0
-2.4 1 19.2 0 0 0 0 255 0
-2.43333 1.13333 19.15 0 0 0 0 255 0
-2.4 0.933333 19.25 0 0 0 0 255 0
-2.36667 0.866667 19.25 0 0 0 0 255 0
-2.33333 0.8 19.25 0 0 0 0 255 0
-2.3 0.8 19.2 0 0 0 0 255 0
-2.3 0.6 18.85 0 0 0 0 255 0
-2.26667 0.6 18.9 0 0 0 0 255 0
-2.23333 0.666667 19 0 0 0 0 255 0
-2.3 0.533333 18.8 0 0 0 0 255 0
-2.4 0.6 18.7 0 0 0 0 255 0
-2.56667 7.6 25.4 0 0 0 0 255 0
-2.53333 7.53333 25.5 0 0 0 0 255 0
-2.5 7.46667 25.6 0 0 0 0 255 0
-2.46667 7.46667 25.65 0 0 0 0 255 0
-2.43333 7.46667 25.7 0 0 0 0 255 0
-2.36667 7.53333 25.75 0 0 0 0 255 0
-2.33333 7.6 25.75 0 0 0 0 255 0
-2.23333 7.73333 25.8 0 0 0 0 255 0
-2.2 7.8 25.8 0 0 0 0 255 0
-2.16667 7.86667 25.8 0 0 0 0 255 0
-2.13333 7.93333 25.8 0 0 0 0 255 0
-2.1 8 25.8 0 0 0 0 255 0
-2.53333 7.93333 25.2 0 0 0 0 255 0
-2.56667 7.86667 25.2 0 0 0 0 255 0
-2.56667 7.8 25.25 0 0 0 0 255 0
-2.56667 7.73333 25.3 0 0 0 0 255 0
-2.56667 7.66667 25.35 0 0 0 0 255 0
-2.5 8.06667 25.15 0 0 0 0 255 0
-2.5 8.13333 25.1 0 0 0 0 255 0
-2.5 8.26667 25 0 0 0 0 255 0
-2.5 8.2 25.05 0 0 0 0 255 0
-2.46667 8.33333 24.9 0 0 0 0 255 0
-2.43333 8.33333 24.85 0 0 0 0 255 0
-2.4 8.33333 24.8 0 0 0 0 255 0
-2.36667 8.33333 24.75 0 0 0 0 255 0
-2.16667 8.4 24.5 0 0 0 0 255 0
-2.13333 8.4 24.45 0 0 0 0 255 0
-2.1 8.4 24.4 0 0 0 0 255 0
-2.06667 8.4 24.35 0 0 0 0 255 0
-2 8.46667 24.3 0 0 0 0 255 0
-1.96667 8.4 24.3 0 0 0 0 255 0
-1.9 8.4 24.3 0 0 0 0 255 0
-1.83333 8.33333 24.35 0 0 0 0 255 0
-1.8 8.26667 24.35 0 0 0 0 255 0
-1.73333 8.26667 24.45 0 0 0 0 255 0
-1.7 8.26667 24.5 0 0 0 0 255 0
-1.66667 8.26667 24.55 0 0 0 0 255 0
-1.63333 8.26667 24.6 0 0 0 0 255 0
-1.6 8.26667 24.65 0 0 0 0 255 0
-1.56667 8.33333 24.75 0 0 0 0 255 0
-1.56667 8.46667 24.85 0 0 0 0 255 0
-1.53333 8.33333 24.8 0 0 0 0 255 0
-1.66667 8.66667 24.85 0 0 0 0 255 0
-1.7 8.73333 24.85 0 0 0 0 255 0
-2.03333 8.6 25.25 0 0 0 0 255 0
-1.96667 8.66667 25.1 0 0 0 0 255 0
-1.86667 8.73333 25 0 0 0 0 255 0
-1.83333 8.73333 24.95 0 0 0 0 255 0
-2.06667 8.6 25.3 0 0 0 0 255 0
-2.06667 8.53333 25.35 0 0 0 0 255 0
-2.06667 8.13333 25.75 0 0 0 0 255 0
-2.06667 8.33333 25.6 0 0 0 0 255 0
-2.06667 8.4 25.55 0 0 0 0 255 0
-2.1 8.4 25.5 0 0 0 0 255 0
-2.1 8.46667 25.45 0 0 0 0 255 0
-2.1 8.53333 25.4 0 0 0 0 255 0
3.23333 -1.4 24.85 0 0 0 0 255 0
3.23333 -1.46667 24.9 0 0 0 0 255 0
3.26667 -1.6 24.95 0 0 0 0 255 0
3.33333 -1.8 25 0 0 0 0 255 0
3.36667 -1.86667 25 0 0 0 0 255 0
3.4 -1.93333 25 0 0 0 0 255 0
3.43333 -2 25 0 0 0 0 255 0
3.53333 -2.2 25 0 0 0 0 255 0
3.56667 -2.26667 25 0 0 0 0 255 0
3.66667 -2.33333 24.9 0 0 0 0 255 0
3.23333 -1.33333 24.8 0 0 0 0 255 0
3.26667 -1.26667 24.7 -0.9468 0.239873 -0.214547 0 255 0
3.33333 -1.33333 24.65 0 0 0 0 255 0
3.7 -2.26667 24.8 0 0 0 0 255 0
3.36667 -1.33333 24.6 0 0 0 0 255 0
3.43333 -1.4 24.55 0 0 0 0 255 0
3.46667 -1.4 24.5 0 0 0 0 255 0
3.5 -1.46667 24.5 0 0 0 0 255 0
3.53333 -1.53333 24.4 0 0 0 0 255 0
3.56667 -1.53333 24.45 0 0 0 0 255 0
3.56667 -1.6 24.4 0 0 0 0 255 0
3.6 -1.66667 24.4 0 0 0 0 255 0
3.66667 -1.73333 24.45 0 0 0 0 255 0
3.7 -1.86667 24.5 0 0 0 0 255 0
3.7 -1.93333 24.55 0 0 0 0 255 0
3.7 -2 24.6 0 0 0 0 255 0
3.73333 -2.13333 24.65 0 0 0 0 255 0
3.73333 -2.2 24.7 0 0 0 0 255 0
0.866667 6.66667 28.55 0 0 0 0 255 0
0.9 6.66667 28.5 0 0 0 0 255 0
0.9 6.6 28.45 0 0 0 0 255 0
0.833333 6.53333 28.6 0 0 0 0 255 0
0.9 6.46667 28.45 0 0 0 0 255 0
0.833333 6.46667 28.65 0 0 0 0 255 0
0.833333 6.4 28.7 0 0 0 0 255 0
0.933333 6.26667 28.75 0 0 0 0 255 0
0.966667 6.26667 28.7 0 0 0 0 255 0
1 6.2 28.7 0 0 0 0 255 0
1.03333 6.2 28.65 0 0 0 0 255 0
1.06667 6.13333 28.65 0 0 0 0 255 0
1.06667 6.53333 28.25 0 0 0 0 255 0
1.06667 6.46667 28.2 0 0 0 0 255 0
1.1 6.46667 28.15 0 0 0 0 255 0
1.16667 6.46667 28.15 0 0 0 0 255 0
1.2 6.53333 28.15 0 0 0 0 255 0
1.33333 6.53333 28.05 0 0 0 0 255 0
1.4 6.46667 28 0 0 0 0 255 0
1.43333 6.46667 27.95 0 0 0 0 255 0
1.46667 6.4 27.95 0 0 0 0 255 0
1.56667 6.2 27.95 0 0 0 0 255 0
1.6 6.06667 28 0 0 0 0 255 0
1.6 6 28.05 0 0 0 0 255 0
1.56667 5.93333 28.15 0 0 0 0 255 0
1.56667 5.86667 28.2 0 0 0 0 255 0
1.53333 5.8 28.3 0 0 0 0 255 0
1.46667 5.8 28.4 0 0 0 0 255 0
1.36667 5.86667 28.5 0 0 0 0 255 0
1.3 5.93333 28.55 0 0 0 0 255 0
1.2 6.06667 28.6 0 0 0 0 255 0
1.16667 6.06667 28.65 0 0 0 0 255 0
1.13333 6.13333 28.65 0 0 0 0 255 0
-2.66667 1.06667 18.6 0 0 0 0 255 0
-2.66667 1 18.55 0 0 0 0 255 0
-2.63333 0.933333 18.55 0 0 0 0 255 0
-2.66667 1.2 18.7 0 0 0 0 255 0
-2.63333 1.2 18.75 0 0 0 0 255 0
-2.6 0.8 18.5 0 0 0 0 255 0
-2.53333 0.733333 18.55 0 0 0 0 255 0
-2.46667 0.666667 18.6 0 0 0 0 255 0
-2.6 1.26667 18.85 0 0 0 0 255 0
-2.56667 1.26667 18.9 0 0 0 0 255 0
-2.53333 1.26667 18.95 0 0 0 0 255 0
-2.46667 1.26667 19.05 0 0 0 0 255 0
-2.43333 1.2 19.15 0 0 0 0 255 0
-2.43333 1.26667 19.1 0 0 0 0 255 0
-2.4 1.06667 19.2 0 0 0 0 255 0
-2.36667 0.933333 19.25 0 0 0 0 255 0
-2.33333 0.866667 19.25 0 0 0 0 255 0
-2.26667 0.8 19.2 0 0 0 0 255 0
-2.23333 0.8 19.15 0 0 0 0 255 0
-2.33333 0.6 18.75 0 0 0 0 255 0
-2.26667 0.6 18.85 0 0 0 0 255 0
-2.23333 0.666667 18.95 0 0 0 0 255 0
-2.2 0.666667 19 0 0 0 0 255 0
-2.2 0.733333 19.05 0 0 0 0 255 0
-2.2 0.8 19.1 0 0 0 0 255 0
-2.36667 0.6 18.7 0 0 0 0 255 0
-2.56667 7.66667 25.4 0 0 0 0 255 0
-2.56667 7.6 25.45 0 0 0 0 255 0
-2.53333 7.53333 25.55 0 0 0 0 255 0
-2.5 7.53333 25.6 0 0 0 0 255 0
-2.46667 7.53333 25.65 0 0 0 0 255 0
-2.43333 7.53333 25.7 0 0 0 0 255 0
-2.4 7.53333 25.75 0 0 0 0 255 0
-2.36667 7.6 25.75 0 0 0 0 255 0
-2.3 7.66667 25.8 0 0 0 0 255 0
-2.26667 7.73333 25.8 0 0 0 0 255 0
-2.1 8.06667 25.8 0 0 0 0 255 0
-2.53333 8 25.2 0 0 0 0 255 0
-2.5 8.33333 25 0 0 0 0 255 0
-2.5 8.26667 25.05 0 0 0 0 255 0
-2.46667 8.4 25 0 0 0 0 255 0
-2.46667 8.33333 24.95 0 0 0 0 255 0
-2.33333 8.4 24.7 0 0 0 0 255 0
-2.3 8.4 24.65 0 0 0 0 255 0
-2.26667 8.4 24.6 0 0 0 0 255 0
-2.23333 8.4 24.55 0 0 0 0 255 0
-2.2 8.4 24.5 0 0 0 0 255 0
-2.13333 8.4 24.4 0 0 0 0 255 0
-2.03333 8.46667 24.3 0 0 0 0 255 0
-1.96667 8.46667 24.3 0 0 0 0 255 0
-1.93333 8.4 24.3 0 0 0 0 255 0
-1.86667 8.4 24.3 0 0 0 0 255 0
-1.76667 8.26667 24.35 0 0 0 0 255 0
-1.73333 8.26667 24.4 0 0 0 0 255 0
-1.7 8.26667 24.45 0 0 0 0 255 0
-1.66667 8.26667 24.5 0 0 0 0 255 0
-1.56667 8.33333 24.7 0 0 0 0 255 0
-1.6 8.6 24.85 0 0 0 0 255 0
-1.56667 8.53333 24.85 0 0 0 0 255 0
-1.53333 8.46667 24.85 0 0 0 0 255 0
-1.53333 8.4 24.8 0 0 0 0 255 0
-1.63333 8.66667 24.85 0 0 0 0 255 0
-1.7 8.73333 24.8 0 0 0 0 255 0
-2 8.66667 25.2 0 0 0 0 255 0
-2 8.73333 25.15 0 0 0 0 255 0
-1.93333 8.73333 25.05 0 0 0 0 255 0
-1.9 8.73333 25 0 0 0 0 255 0
-1.8 8.8 24.9 0 0 0 0 255 0
-1.76667 8.8 24.85 0 0 0 0 255 0
-1.73333 8.8 24.8 0 0 0 0 255 0
-2.1 8.6 25.3 0 0 0 0 255 0
-2.06667 8.26667 25.7 0 0 0 0 255 0
-2.06667 8.2 25.75 0 0 0 0 255 0
-2.06667 8.13333 25.8 0 0 0 0 255 0
-2.06667 8.33333 25.65 0 0 0 0 255 0
-2.1 8.4 25.55 0 0 0 0 255 0
-2.13333 8.46667 25.45 0 0 0 0 255 0
-2.13333 8.53333 25.4 0 0 0 0 255 0
3.26667 -1.4 24.85 0 0 0 0 255 0
3.26667 -1.46667 24.9 0 0 0 0 255 0
3.26667 -1.53333 24.95 0 0 0 0 255 0
3.3 -1.66667 25 0 0 0 0 255 0
3.33333 -1.73333 25 0 0 0 0 255 0
3.36667 -1.8 25 0 0 0 0 255 0
3.46667 -2.06667 25.05 0 0 0 0 255 0
3.5 -2.13333 25.05 0 0 0 0 255 0
3.56667 -2.2 25 0 0 0 0 255 0
3.6 -2.26667 25 0 0 0 0 255 0
3.63333 -2.26667 24.95 0 0 0 0 255 0
3.7 -2.26667 24.85 0 0 0 0 255 0
3.26667 -1.33333 24.8 0 0 0 0 255 0
3.26667 -1.26667 24.75 -0.965536 0.260031 0.0111659 0 255 0
3.3 -1.26667 24.7 0 0 0 0 255 0
3.36667 -1.33333 24.65 0 0 0 0 255 0
3.73333 -2.26667 24.8 0 0 0 0 255 0
3.4 -1.33333 24.6 0 0 0 0 255 0
3.46667 -1.4 24.55 0 0 0 0 255 0
3.5 -1.46667 24.55 0 0 0 0 255 0
3.53333 -1.46667 24.5 0 0 0 0 255 0
3.56667 -1.53333 24.5 0 0 0 0 255 0
3.56667 -1.53333 24.4 0 0 0 0 255 0
3.6 -1.53333 24.45 0 0 0 0 255 0
3.6 -1.6 24.4 0 0 0 0 255 0
3.63333 -1.66667 24.4 0 0 0 0 255 0
3.63333 -1.6 24.45 0 0 0 0 255 0
3.66667 -1.66667 24.45 0 0 0 0 255 0
3.7 -1.73333 24.45 0 0 0 0 255 0
3.7 -1.8 24.5 0 0 0 0 255 0
3.73333 -1.93333 24.55 0 0 0 0 255 0
3.73333 -2 24.6 0 0 0 0 255 0
3.73333 -2.06667 24.65 0 0 0 0 255 0
3.73333 -2.2 24.75 0 0 0 0 255 0
0.866667 6.66667 28.6 0 0 0 0 255 0
0.833333 6.6 28.6 0 0 0 0 255 0
0.833333 6.53333 28.65 0 0 0 0 255 0
0.933333 6.53333 28.4 0 0 0 0 255 0
0.833333 6.46667 28.7 0 0 0 0 255 0
0.833333 6.4 28.75 0 0 0 0 255 0
0.866667 6.4 28.8 0 0 0 0 255 0
0.9 6.33333 28.8 0 0 0 0 255 0
0.966667 6.26667 28.75 0 0 0 0 255 0
1 6.2 28.75 0 0 0 0 255 0
1.03333 6.2 28.7 0 0 0 0 255 0
0.966667 6.53333 28.35 0 0 0 0 255 0
1 6.6 28.35 0 0 0 0 255 0
1.06667 6.6 28.25 0 0 0 0 255 0
1.16667 6.53333 28.15 0 0 0 0 255 0
1.23333 6.53333 28.15 0 0 0 0 255 0
1.26667 6.53333 28.1 0 0 0 0 255 0
1.36667 6.53333 28.05 0 0 0 0 255 0
1.4 6.53333 28 0 0 0 0 255 0
1.46667 6.46667 27.95 0 0 0 0 255 0
1.5 6.4 27.95 0 0 0 0 255 0
1.53333 6.33333 27.95 0 0 0 0 255 0
1.56667 6.26667 27.95 0 0 0 0 255 0
1.6 6.2 27.95 0 0 0 0 255 0
1.6 6.13333 28 0 0 0 0 255 0
1.63333 6.06667 28 0 0 0 0 255 0
1.6 6 28.1 0 0 0 0 255 0
1.56667 5.93333 28.2 0 0 0 0 255 0
1.56667 5.86667 28.25 0 0 0 0 255 0
1.53333 5.8 28.35 0 0 0 0 255 0
1.5 5.8 28.4 0 0 0 0 255 0
1.46667 5.8 28.45 0 0 0 0 255 0
1.4 5.86667 28.5 0 0 0 0 255 0
1.43333 5.86667 28.45 0 0 0 0 255 0
1.33333 5.93333 28.55 0 0 0 0 255 0
1.23333 6.06667 28.6 0 0 0 0 255 0
1.26667 6 28.6 0 0 0 0 255 0
1.2 6.06667 28.65 0 0 0 0 255 0
1.1 6.2 28.7 0 0 0 0 255 0
-2.66667 1.13333 18.6 0 0 0 0 255 0
-2.66667 1.06667 18.55 0 0 0 0 255 0
-2.7 1.13333 18.65 0 0 0 0 255 0
-2.66667 1.2 18.65 0 0 0 0 255 0
-2.63333 1.2 18.7 0 0 0 0 255 0
-2.6 0.866667 18.5 0 0 0 0 255 0
-2.56667 0.8 18.5 0 0 0 0 255 0
-2.5 0.733333 18.55 0 0 0 0 255 0
-2.46667 0.733333 18.6 0 0 0 0 255 0
-2.43333 0.666667 18.6 0 0 0 0 255 0
-2.4 0.666667 18.65 0 0 0 0 255 0
-2.6 1.26667 18.8 0 0 0 0 255 0
-2.56667 1.26667 18.85 0 0 0 0 255 0
-2.53333 1.26667 18.9 0 0 0 0 255 0
-2.5 1.26667 18.95 0 0 0 0 255 0
-2.46667 1.26667 19 0 0 0 0 255 0
-2.43333 1.26667 19.05 0 0 0 0 255 0
-2.4 1.2 19.15 0 0 0 0 255 0
-2.4 1.13333 19.2 0 0 0 0 255 0
-2.36667 1.06667 19.2 0 0 0 0 255 0
-2.36667 1 19.25 0 0 0 0 255 0
-2.33333 0.933333 19.25 0 0 0 0 255 0
-2.3 0.866667 19.25 0 0 0 0 255 0
-2.23333 0.8 19.2 0 0 0 0 255 0
-2.2 0.8 19.15 0 0 0 0 255 0
-2.33333 0.6 18.7 0 0 0 0 255 0
-2.3 0.6 18.75 0 0 0 0 255 0
-2.26667 0.6 18.8 0 0 0 0 255 0
-2.23333 0.666667 18.9 0 0 0 0 255 0
-2.2 0.666667 18.95 0 0 0 0 255 0
-2.16667 0.733333 19.05 0 0 0 0 255 0
-2.16667 0.8 19.1 0 0 0 0 255 0
-2.56667 7.66667 25.45 0 0 0 0 255 0
-2.56667 7.6 25.5 0 0 0 0 255 0
-2.53333 7.6 25.55 0 0 0 0 255 0
-2.46667 7.53333 25.7 0 0 0 0 255 0
-2.33333 7.66667 25.8 0 0 0 0 255 0
-2.26667 7.73333 25.85 0 0 0 0 255 0
-2.23333 7.8 25.85 0 0 0 0 255 0
-2.2 7.86667 25.85 0 0 0 0 255 0
-2.16667 7.93333 25.85 0 0 0 0 255 0
-2.13333 8.06667 25.8 0 0 0 0 255 0
-2.13333 8 25.85 0 0 0 0 255 0
-2.1 8.13333 25.8 0 0 0 0 255 0
-2.53333 8.06667 25.2 0 0 0 0 255 0
-2.6 7.86667 25.25 0 0 0 0 255 0
-2.56667 7.93333 25.25 0 0 0 0 255 0
-2.6 7.8 25.3 0 0 0 0 255 0
-2.6 7.73333 25.35 0 0 0 0 255 0
-2.53333 8.13333 25.15 0 0 0 0 255 0
-2.53333 8.2 25.1 0 0 0 0 255 0
-2.5 8.4 25 0 0 0 0 255 0
-2.46667 8.4 24.95 0 0 0 0 255 0
-2.5 8.4 24.9 0 0 0 0 255 0
-2.46667 8.46667 24.9 0 0 0 0 255 0
-2.46667 8.4 24.85 0 0 0 0 255 0
-2.43333 8.53333 24.9 0 0 0 0 255 0
-2.43333 8.46667 24.85 0 0 0 0 255 0
-2.43333 8.4 24.8 0 0 0 0 255 0
-2.4 8.4 24.75 0 0 0 0 255 0
-2.36667 8.4 24.7 0 0 0 0 255 0
-2.33333 8.4 24.65 0 0 0 0 255 0
-2.3 8.4 24.6 0 0 0 0 255 0
-2.26667 8.4 24.55 0 0 0 0 255 0
-2.16667 8.46667 24.45 0 0 0 0 255 0
-2.1 8.46667 24.35 0 0 0 0 255 0
-2.06667 8.46667 24.3 0 0 0 0 255 0
-2 8.53333 24.25 0 0 0 0 255 0
-1.9 8.46667 24.25 0 0 0 0 255 0
-1.83333 8.4 24.3 0 0 0 0 255 0
-1.8 8.33333 24.3 0 0 0 0 255 0
-1.73333 8.26667 24.35 0 0 0 0 255 0
-1.7 8.26667 24.4 0 0 0 0 255 0
-1.66667 8.26667 24.45 0 0 0 0 255 0
-1.63333 8.33333 24.55 0 0 0 0 255 0
-1.6 8.33333 24.6 0 0 0 0 255 0
-1.56667 8.33333 24.65 0 0 0 0 255 0
-1.53333 8.33333 24.7 0 0 0 0 255 0
-1.53333 8.53333 24.85 0 0 0 0 255 0
-1.53333 8.46667 24.8 0 0 0 0 255 0
-1.53333 8.4 24.75 0 0 0 0 255 0
-1.5 8.4 24.8 0 0 0 0 255 0
-1.66667 8.73333 24.8 0 0 0 0 255 0
-1.63333 8.66667 24.8 0 0 0 0 255 0
-2.06667 8.66667 25.25 0 0 0 0 255 0
-2.03333 8.66667 25.2 0 0 0 0 255 0
-2.03333 8.73333 25.15 0 0 0 0 255 0
-2 8.73333 25.1 0 0 0 0 255 0
-1.96667 8.73333 25.05 0 0 0 0 255 0
-1.86667 8.8 24.95 0 0 0 0 255 0
-1.83333 8.8 24.9 0 0 0 0 255 0
-1.8 8.8 24.85 0 0 0 0 255 0
-1.76667 8.8 24.8 0 0 0 0 255 0
-2.1 8.6 25.35 0 0 0 0 255 0
-2.1 8.33333 25.65 0 0 0 0 255 0
-2.1 8.4 25.6 0 0 0 0 255 0
-2.13333 8.46667 25.5 0 0 0 0 255 0
3.26667 -1.33333 24.85 0 0 0 0 255 0
3.26667 -1.46667 24.95 0 0 0 0 255 0
3.3 -1.6 25 0 0 0 0 255 0
3.33333 -1.66667 25 0 0 0 0 255 0
3.4 -1.86667 25.05 0 0 0 0 255 0
3.43333 -1.93333 25.05 0 0 0 0 255 0
3.46667 -2 25.05 0 0 0 0 255 0
3.5 -2.06667 25.05 0 0 0 0 255 0
3.53333 -2.13333 25.05 0 0 0 0 255 0
3.63333 -2.26667 25 0 0 0 0 255 0
3.66667 -2.26667 24.95 0 0 0 0 255 0
3.7 -2.26667 24.9 0 0 0 0 255 0
3.3 -1.26667 24.75 0 0 0 0 255 0
3.33333 -1.26667 24.7 0 0 0 0 255 0
3.4 -1.33333 24.65 0 0 0 0 255 0
3.43333 -1.33333 24.6 0 0 0 0 255 0
3.46667 -1.4 24.6 0 0 0 0 255 0
3.53333 -1.46667 24.55 0 0 0 0 255 0
3.6 -1.53333 24.5 0 0 0 0 255 0
3.66667 -1.6 24.45 0 0 0 0 255 0
3.73333 -1.8 24.5 0 0 0 0 255 0
3.73333 -1.86667 24.55 0 0 0 0 255 0
3.76667 -2.06667 24.65 0 0 0 0 255 0
3.76667 -2.13333 24.7 0 0 0 0 255 0
0.866667 6.66667 28.65 0 0 0 0 255 0
0.9 6.73333 28.55 0 0 0 0 255 0
0.833333 6.6 28.65 0 0 0 0 255 0
0.933333 6.66667 28.45 0 0 0 0 255 0
0.933333 6.6 28.4 0 0 0 0 255 0
0.833333 6.53333 28.7 0 0 0 0 255 0
0.933333 6.46667 28.4 0 0 0 0 255 0
0.833333 6.46667 28.75 0 0 0 0 255 0
0.866667 6.46667 28.8 0 0 0 0 255 0
0.933333 6.33333 28.8 0 0 0 0 255 0
0.966667 6.26667 28.8 0 0 0 0 255 0
1.06667 6.2 28.7 0 0 0 0 255 0
0.966667 6.46667 28.35 0 0 0 0 255 0
1.1 6.6 28.25 0 0 0 0 255 0
1.1 6.53333 28.2 0 0 0 0 255 0
1.23333 6.6 28.15 0 0 0 0 255 0
1.3 6.53333 28.1 0 0 0 0 255 0
1.33333 6.6 28.1 0 0 0 0 255 0
1.43333 6.53333 28 0 0 0 0 255 0
1.46667 6.53333 27.95 0 0 0 0 255 0
1.5 6.46667 27.95 0 0 0 0 255 0
1.56667 6.33333 27.95 0 0 0 0 255 0
1.6 6.26667 27.95 0 0 0 0 255 0
1.63333 6.13333 28 0 0 0 0 255 0
1.63333 6.06667 28.05 0 0 0 0 255 0
1.6 6 28.15 0 0 0 0 255 0
1.56667 5.93333 28.25 0 0 0 0 255 0
1.56667 5.86667 28.3 0 0 0 0 255 0
1.43333 5.86667 28.5 0 0 0 0 255 0
1.36667 5.93333 28.55 0 0 0 0 255 0
1.3 6 28.6 0 0 0 0 255 0
1.26667 6.06667 28.6 0 0 0 0 255 0
1.16667 6.13333 28.7 0 0 0 0 255 0
1.13333 6.2 28.7 0 0 0 0 255 0
-2.63333 1.13333 18.6 0 0 0 0 255 0
-2.63333 1.06667 18.55 0 0 0 0 255 0
-2.63333 1 18.5 0 0 0 0 255 0
-2.63333 1.2 18.65 0 0 0 0 255 0
-2.6 0.933333 18.5 0 0 0 0 255 0
-2.6 1.2 18.7 0 0 0 0 255 0
-2.6 1.26667 18.75 0 0 0 0 255 0
-2.56667 0.866667 18.5 0 0 0 0 255 0
-2.53333 0.8 18.5 0 0 0 0 255 0
-2.5 0.8 18.55 0 0 0 0 255 0
-2.43333 0.733333 18.6 0 0 0 0 255 0
-2.36667 0.666667 18.65 0 0 0 0 255 0
-2.56667 1.26667 18.8 0 0 0 0 255 0
-2.53333 1.26667 18.85 0 0 0 0 255 0
-2.5 1.26667 18.9 0 0 0 0 255 0
-2.46667 1.26667 18.95 0 0 0 0 255 0
-2.4 1.26667 19.15 0 0 0 0 255 0
-2.4 1.33333 19.1 0 0 0 0 255 0
-2.36667 1.13333 19.2 0 0 0 0 255 0
-2.33333 1 19.25 0 0 0 0 255 0
-2.26667 0.866667 19.25 0 0 0 0 255 0
-2.23333 0.866667 19.2 0 0 0 0 255 0
-2.33333 0.666667 18.7 0 0 0 0 255 0
-2.23333 0.6 18.8 0 0 0 0 255 0
-2.23333 0.666667 18.85 0 0 0 0 255 0
-2.2 0.666667 18.9 0 0 0 0 255 0
-2.16667 0.733333 19 0 0 0 0 255 0
-2.13333 0.8 19.1 0 0 0 0 255 0
-2.6 7.73333 25.4 0 0 0 0 255 0
-2.56667 7.66667 25.5 0 0 0 0 255 0
-2.53333 7.6 25.6 0 0 0 0 255 0
-2.5 7.6 25.65 0 0 0 0 255 0
-2.43333 7.6 25.75 0 0 0 0 255 0
-2.4 7.6 25.8 0 0 0 0 255 0
-2.36667 7.66667 25.8 0 0 0 0 255 0
-2.3 7.73333 25.85 0 0 0 0 255 0
-2.26667 7.8 25.85 0 0 0 0 255 0
-2.23333 7.86667 25.85 0 0 0 0 255 0
-2.2 7.93333 25.85 0 0 0 0 255 0
-2.16667 8 25.85 0 0 0 0 255 0
-2.1 8.26667 25.75 0 0 0 0 255 0
-2.1 8.2 25.8 0 0 0 0 255 0
-2.53333 8.13333 25.2 0 0 0 0 255 0
-2.56667 8 25.25 0 0 0 0 255 0
-2.6 7.93333 25.25 0 0 0 0 255 0
-2.6 7.86667 25.3 0 0 0 0 255 0
-2.6 7.8 25.35 0 0 0 0 255 0
-2.53333 8.2 25.15 0 0 0 0 255 0
-2.53333 8.26667 25.1 0 0 0 0 255 0
-2.5 8.4 25.05 0 0 0 0 255 0
-2.53333 8.33333 25.05 0 0 0 0 255 0
-2.46667 8.46667 25.05 0 0 0 0 255 0
-2.46667 8.46667 24.95 0 0 0 0 255 0
-2.43333 8.53333 24.95 0 0 0 0 255 0
-2.43333 8.53333 24.85 0 0 0 0 255 0
-2.4 8.53333 24.9 0 0 0 0 255 0
-2.43333 8.46667 25 0 0 0 0 255 0
-2.33333 8.4 24.6 0 0 0 0 255 0
-2.23333 8.46667 24.5 0 0 0 0 255 0
-2.2 8.46667 24.45 0 0 0 0 255 0
-2.16667 8.46667 24.4 0 0 0 0 255 0
-2.13333 8.46667 24.35 0 0 0 0 255 0
-2.03333 8.53333 24.25 0 0 0 0 255 0
-1.96667 8.53333 24.25 0 0 0 0 255 0
-1.93333 8.46667 24.25 0 0 0 0 255 0
-1.86667 8.46667 24.25 0 0 0 0 255 0
-1.8 8.4 24.3 0 0 0 0 255 0
-1.76667 8.33333 24.3 0 0 0 0 255 0
-1.63333 8.33333 24.5 0 0 0 0 255 0
-1.6 8.33333 24.55 0 0 0 0 255 0
-1.56667 8.33333 24.6 0 0 0 0 255 0
-1.6 8.66667 24.8 0 0 0 0 255 0
-1.56667 8.6 24.8 0 0 0 0 255 0
-1.53333 8.53333 24.8 0 0 0 0 255 0
-1.5 8.4 24.75 0 0 0 0 255 0
-1.7 8.8 24.75 0 0 0 0 255 0
-2.1 8.66667 25.25 0 0 0 0 255 0
-2.03333 8.73333 25.1 0 0 0 0 255 0
-1.93333 8.8 25 0 0 0 0 255 0
-1.9 8.8 24.95 0 0 0 0 255 0
-1.73333 8.86667 24.75 0 0 0 0 255 0
-2.13333 8.66667 25.3 0 0 0 0 255 0
-2.13333 8.6 25.35 0 0 0 0 255 0
-2.1 8.33333 25.7 0 0 0 0 255 0
-2.13333 8.4 25.6 0 0 0 0 255 0
-2.13333 8.46667 25.55 0 0 0 0 255 0
-2.16667 8.53333 25.45 0 0 0 0 255 0
-2.16667 8.6 25.4 0 0 0 0 255 0
3.3 -1.33333 24.85 0 0 0 0 255 0
3.3 -1.4 24.9 0 0 0 0 255 0
3.3 -1.46667 24.95 0 0 0 0 255 0
3.3 -1.53333 25 0 0 0 0 255 0
3.33333 -1.6 25 0 0 0 0 255 0
3.36667 -1.66667 25 0 0 0 0 255 0
3.36667 -1.73333 25.05 0 0 0 0 255 0
3.4 -1.8 25.05 0 0 0 0 255 0
3.43333 -1.86667 25.05 0 0 0 0 255 0
3.46667 -1.93333 25.05 0 0 0 0 255 0
3.56667 -2.13333 25.05 0 0 0 0 255 0
3.6 -2.2 25.05 0 0 0 0 255 0
3.63333 -2.2 25 0 0 0 0 255 0
3.73333 -2.2 24.85 0 0 0 0 255 0
3.3 -1.26667 24.8 0 0 0 0 255 0
3.36667 -1.26667 24.7 0 0 0 0 255 0
3.43333 -1.33333 24.65 0 0 0 0 255 0
3.76667 -2.2 24.8 0 0 0 0 255 0
3.5 -1.4 24.6 0 0 0 0 255 0
3.53333 -1.46667 24.6 0 0 0 0 255 0
3.56667 -1.46667 24.55 0 0 0 0 255 0
3.6 -1.53333 24.55 0 0 0 0 255 0
3.63333 -1.53333 24.5 0 0 0 0 255 0
3.66667 -1.6 24.5 0 0 0 0 255 0
3.7 -1.66667 24.5 0 0 0 0 255 0
3.73333 -1.73333 24.5 0 0 0 0 255 0
3.76667 -1.86667 24.55 0 0 0 0 255 0
3.76667 -1.93333 24.6 0 0 0 0 255 0
3.76667 -2 24.65 0 0 0 0 255 0
3.76667 -2.13333 24.75 0 0 0 0 255 0
0.866667 6.66667 28.7 0 0 0 0 255 0
0.9 6.73333 28.6 0 0 0 0 255 0
0.933333 6.73333 28.55 0 0 0 0 255 0
0.833333 6.6 28.7 0 0 0 0 255 0
0.966667 6.66667 28.45 0 0 0 0 255 0
0.966667 6.6 28.4 0 0 0 0 255 0
0.833333 6.53333 28.75 0 0 0 0 255 0
0.866667 6.53333 28.8 0 0 0 0 255 0
0.9 6.4 28.85 0 0 0 0 255 0
1 6.26667 28.8 0 0 0 0 255 0
1.03333 6.26667 28.75 0 0 0 0 255 0
1.06667 6.2 28.75 0 0 0 0 255 0
1.03333 6.6 28.3 0 0 0 0 255 0
1.06667 6.66667 28.3 0 0 0 0 255 0
1.13333 6.6 28.25 0 0 0 0 255 0
1.13333 6.53333 28.2 0 0 0 0 255 0
1.16667 6.6 28.2 0 0 0 0 255 0
1.26667 6.6 28.15 0 0 0 0 255 0
1.3 6.6 28.1 0 0 0 0 255 0
1.36667 6.6 28.1 0 0 0 0 255 0
1.43333 6.6 28 0 0 0 0 255 0
1.5 6.53333 27.95 0 0 0 0 255 0
1.53333 6.46667 27.95 0 0 0 0 255 0
1.53333 6.4 27.9 0 0 0 0 255 0
1.56667 6.4 27.95 0 0 0 0 255 0
1.6 6.33333 27.95 0 0 0 0 255 0
1.63333 6.26667 27.95 0 0 0 0 255 0
1.63333 6.2 28 0 0 0 0 255 0
1.63333 6.06667 28.1 0 0 0 0 255 0
1.6 6 28.2 0 0 0 0 255 0
1.56667 5.93333 28.3 0 0 0 0 255 0
1.53333 5.86667 28.4 0 0 0 0 255 0
1.56667 5.86667 28.35 0 0 0 0 255 0
1.5 5.86667 28.45 0 0 0 0 255 0
1.46667 5.86667 28.5 0 0 0 0 255 0
1.4 5.93333 28.55 0 0 0 0 255 0
1.33333 6 28.6 0 0 0 0 255 0
1.3 6.06667 28.6 0 0 0 0 255 0
1.23333 6.13333 28.65 0 0 0 0 255 0
1.2 6.13333 28.7 0 0 0 0 255 0
1.16667 6.2 28.7 0 0 0 0 255 0
1.1 6.26667 28.75 0 0 0 0 255 0
-2.63333 1.2 18.6 0 0 0 0 255 0
-2.6 1 18.5 0 0 0 0 255 0
-2.6 1.2 18.65 0 0 0 0 255 0
-2.56667 0.933333 18.5 0 0 0 0 255 0
-2.56667 1.2 18.7 0 0 0 0 255 0
-2.56667 1.26667 18.75 0 0 0 0 255 0
-2.53333 0.866667 18.5 0 0 0 0 255 0
-2.46667 0.8 18.55 0 0 0 0 255 0
-2.4 0.733333 18.6 0 0 0 0 255 0
-2.36667 0.733333 18.65 0 0 0 0 255 0
-2.53333 1.26667 18.8 0 0 0 0 255 0
-2.5 1.26667 18.85 0 0 0 0 255 0
-2.46667 1.26667 18.9 0 0 0 0 255 0
-2.43333 1.33333 19 0 0 0 0 255 0
-2.4 1.33333 19.05 0 0 0 0 255 0
-2.36667 1.26667 19.15 0 0 0 0 255 0
-2.36667 1.2 19.2 0 0 0 0 255 0
-2.36667 1.33333 19.1 0 0 0 0 255 0
-2.33333 1.13333 19.2 0 0 0 0 255 0
-2.33333 1.06667 19.25 0 0 0 0 255 0
-2.3 1 19.25 0 0 0 0 255 0
-2.3 0.933333 19.3 0 0 0 0 255 0
-2.26667 0.933333 19.25 0 0 0 0 255 0
-2.2 0.866667 19.2 0 0 0 0 255 0
-2.16667 0.866667 19.15 0 0 0 0 255 0
-2.3 0.666667 18.7 0 0 0 0 255 0
-2.26667 0.666667 18.75 0 0 0 0 255 0
-2.23333 0.666667 18.8 0 0 0 0 255 0
-2.2 0.666667 18.85 0 0 0 0 255 0
-2.16667 0.733333 18.95 0 0 0 0 255 0
-2.13333 0.8 19.05 0 0 0 0 255 0
-2.6 7.8 25.4 0 0 0 0 255 0
-2.6 7.73333 25.45 0 0 0 0 255 0
-2.56667 7.66667 25.55 0 0 0 0 255 0
-2.5 7.6 25.7 0 0 0 0 255 0
-2.46667 7.6 25.75 0 0 0 0 255 0
-2.4 7.66667 25.8 0 0 0 0 255 0
-2.33333 7.73333 25.85 0 0 0 0 255 0
-2.3 7.8 25.85 0 0 0 0 255 0
-2.16667 8.06667 25.85 0 0 0 0 255 0
-2.13333 8.13333 25.85 0 0 0 0 255 0
-2.13333 8.26667 25.75 0 0 0 0 255 0
-2.53333 8.2 25.2 0 0 0 0 255 0
-2.56667 8.06667 25.25 0 0 0 0 255 0
-2.6 7.93333 25.3 0 0 0 0 255 0
-2.6 7.86667 25.35 0 0 0 0 255 0
-2.53333 8.26667 25.15 0 0 0 0 255 0
-2.53333 8.33333 25.1 0 0 0 0 255 0
-2.5 8.4 25.1 0 0 0 0 255 0
-2.46667 8.46667 25.1 0 0 0 0 255 0
-2.43333 8.46667 25.05 0 0 0 0 255 0
-2.46667 8.4 25.15 0 0 0 0 255 0
-2.4 8.53333 24.95 0 0 0 0 255 0
-2.43333 8.53333 24.8 0 0 0 0 255 0
-2.4 8.53333 24.85 0 0 0 0 255 0
-2.46667 8.46667 24.8 0 0 0 0 255 0
-2.43333 8.46667 24.75 0 0 0 0 255 0
-2.4 8.6 24.8 0 0 0 0 255 0
-2.4 8.46667 24.7 0 0 0 0 255 0
-2.36667 8.46667 24.65 0 0 0 0 255 0
-2.3 8.46667 24.55 0 0 0 0 255 0
-2.26667 8.46667 24.5 0 0 0 0 255 0
-2.2 8.53333 24.45 0 0 0 0 255 0
-2.16667 8.53333 24.4 0 0 0 0 255 0
-2.1 8.53333 24.3 0 0 0 0 255 0
-2.06667 8.53333 24.25 0 0 0 0 255 0
-2 8.6 24.2 0 0 0 0 255 0
-1.93333 8.53333 24.25 0 0 0 0 255 0
-1.9 8.53333 24.2 0 0 0 0 255 0
-1.83333 8.46667 24.25 0 0 0 0 255 0
-1.76667 8.4 24.3 0 0 0 0 255 0
-1.73333 8.33333 24.3 0 0 0 0 255 0
-1.7 8.33333 24.35 0 0 0 0 255 0
-1.66667 8.33333 24.4 0 0 0 0 255 0
-1.63333 8.33333 24.45 0 0 0 0 255 0
-1.6 8.33333 24.5 0 0 0 0 255 0
-1.53333 8.4 24.65 0 0 0 0 255 0
-1.5 8.4 24.7 0 0 0 0 255 0
-1.56667 8.66667 24.8 0 0 0 0 255 0
-1.53333 8.6 24.8 0 0 0 0 255 0
-1.5 8.46667 24.75 0 0 0 0 255 0
-1.66667 8.8 24.75 0 0 0 0 255 0
-1.63333 8.73333 24.75 0 0 0 0 255 0
-2.06667 8.73333 25.2 0 0 0 0 255 0
-2.06667 8.8 25.15 0 0 0 0 255 0
-2 8.8 25.05 0 0 0 0 255 0
-1.96667 8.8 25 0 0 0 0 255 0
-1.86667 8.86667 24.9 0 0 0 0 255 0
-1.83333 8.86667 24.85 0 0 0 0 255 0
-1.8 8.86667 24.8 0 0 0 0 255 0
-1.76667 8.86667 24.75 0 0 0 0 255 0
-1.73333 8.86667 24.7 0 0 0 0 255 0
-2.16667 8.66667 25.3 0 0 0 0 255 0
-2.16667 8.6 25.35 0 0 0 0 255 0
-2.13333 8.33333 25.7 0 0 0 0 255 0
-2.13333 8.4 25.65 0 0 0 0 255 0
-2.16667 8.46667 25.55 0 0 0 0 255 0
-2.16667 8.53333 25.5 0 0 0 0 255 0
-2.2 8.6 25.4 0 0 0 0 255 0
3.33333 -1.33333 24.85 0 0 0 0 255 0
3.3 -1.4 24.95 0 0 0 0 255 0
3.33333 -1.4 24.9 0 0 0 0 255 0
3.33333 -1.46667 24.95 0 0 0 0 255 0
3.33333 -1.53333 25 0 0 0 0 255 0
3.4 -1.73333 25.05 0 0 0 0 255 0
3.5 -2 25.1 0 0 0 0 255 0
3.53333 -2.06667 25.1 0 0 0 0 255 0
3.6 -2.13333 25.05 0 0 0 0 255 0
3.66667 -2.2 25 0 0 0 0 255 0
3.7 -2.2 24.95 0 0 0 0 255 0
3.73333 -2.2 24.9 0 0 0 0 255 0
3.76667 -2.2 24.85 0 0 0 0 255 0
3.33333 -1.26667 24.8 0 0 0 0 255 0
3.33333 -1.2 24.75 0 0 0 0 255 0
3.4 -1.26667 24.7 0 0 0 0 255 0
3.43333 -1.33333 24.7 0 0 0 0 255 0
3.46667 -1.33333 24.65 0 0 0 0 255 0
3.5 -1.4 24.65 0 0 0 0 255 0
3.56667 -1.46667 24.6 0 0 0 0 255 0
3.63333 -1.53333 24.55 0 0 0 0 255 0
3.66667 -1.6 24.55 0 0 0 0 255 0
3.73333 -1.66667 24.5 0 0 0 0 255 0
3.76667 -1.8 24.55 0 0 0 0 255 0
3.8 -2.06667 24.7 0 0 0 0 255 0
0.866667 6.73333 28.7 0 0 0 0 255 0
0.866667 6.66667 28.75 0 0 0 0 255 0
0.9 6.73333 28.65 0 0 0 0 255 0
0.933333 6.73333 28.6 0 0 0 0 255 0
0.933333 6.73333 28.5 0 0 0 0 255 0
0.966667 6.73333 28.55 0 0 0 0 255 0
0.833333 6.6 28.75 0 0 0 0 255 0
0.966667 6.73333 28.45 0 0 0 0 255 0
0.9 6.46667 28.85 0 0 0 0 255 0
0.933333 6.4 28.85 0 0 0 0 255 0
0.966667 6.33333 28.85 0 0 0 0 255 0
1.03333 6.26667 28.8 0 0 0 0 255 0
1.06667 6.66667 28.35 0 0 0 0 255 0
1.1 6.66667 28.3 0 0 0 0 255 0
1.13333 6.6 28.2 0 0 0 0 255 0
1.2 6.6 28.2 0 0 0 0 255 0
1.23333 6.66667 28.2 0 0 0 0 255 0
1.36667 6.66667 28.1 0 0 0 0 255 0
1.46667 6.6 28 0 0 0 0 255 0
1.53333 6.53333 27.95 0 0 0 0 255 0
1.56667 6.46667 27.95 0 0 0 0 255 0
1.6 6.4 27.95 0 0 0 0 255 0
1.63333 6.33333 27.95 0 0 0 0 255 0
1.66667 6.2 28 0 0 0 0 255 0
1.66667 6.13333 28.05 0 0 0 0 255 0
1.63333 6.06667 28.15 0 0 0 0 255 0
1.6 6 28.25 0 0 0 0 255 0
1.56667 5.93333 28.35 0 0 0 0 255 0
1.53333 5.93333 28.4 0 0 0 0 255 0
1.5 5.93333 28.45 0 0 0 0 255 0
1.46667 5.93333 28.5 0 0 0 0 255 0
1.43333 5.93333 28.55 0 0 0 0 255 0
1.36667 6 28.6 0 0 0 0 255 0
1.33333 6.06667 28.6 0 0 0 0 255 0
1.26667 6.13333 28.65 0 0 0 0 255 0
1.13333 6.26667 28.75 0 0 0 0 255 0
1.1 6.26667 28.8 0 0 0 0 255 0
-2.6 1.2 18.6 0 0 0 0 255 0
-2.6 1.13333 18.55 0 0 0 0 255 0
-2.6 1.06667 18.5 0 0 0 0 255 0
-2.56667 1 18.5 0 0 0 0 255 0
-2.56667 1.2 18.65 0 0 0 0 255 0
-2.53333 1.2 18.7 0 0 0 0 255 0
-2.53333 1.26667 18.75 0 0 0 0 255 0
-2.5 1.2 18.75 0 0 0 0 255 0
-2.5 0.866667 18.5 0 0 0 0 255 0
-2.43333 0.8 18.55 0 0 0 0 255 0
-2.4 0.8 18.6 0 0 0 0 255 0
-2.33333 0.733333 18.65 0 0 0 0 255 0
-2.5 1.26667 18.8 0 0 0 0 255 0
-2.46667 1.26667 18.85 0 0 0 0 255 0
-2.43333 1.26667 18.9 0 0 0 0 255 0
-2.43333 1.33333 18.95 0 0 0 0 255 0
-2.4 1.33333 19 0 0 0 0 255 0
-2.36667 1.33333 19.05 0 0 0 0 255 0
-2.33333 1.2 19.2 0 0 0 0 255 0
-2.33333 1.33333 19.1 0 0 0 0 255 0
-2.3 1.06667 19.25 0 0 0 0 255 0
-2.23333 0.933333 19.25 0 0 0 0 255 0
-2.2 0.933333 19.2 0 0 0 0 255 0
-2.13333 0.866667 19.15 0 0 0 0 255 0
-2.3 0.733333 18.7 0 0 0 0 255 0
-2.23333 0.666667 18.75 0 0 0 0 255 0
-2.16667 0.733333 18.9 0 0 0 0 255 0
-2.13333 0.733333 18.95 0 0 0 0 255 0
-2.13333 0.8 19 0 0 0 0 255 0
-2.1 0.8 19.05 0 0 0 0 255 0
-2.1 0.866667 19.1 0 0 0 0 255 0
-2.6 7.86667 25.4 0 0 0 0 255 0
-2.6 7.8 25.45 0 0 0 0 255 0
-2.6 7.73333 25.5 0 0 0 0 255 0
-2.56667 7.66667 25.6 0 0 0 0 255 0
-2.53333 7.66667 25.65 0 0 0 0 255 0
-2.43333 7.66667 25.8 0 0 0 0 255 0
-2.36667 7.73333 25.85 0 0 0 0 255 0
-2.26667 7.86667 25.9 0 0 0 0 255 0
-2.23333 7.93333 25.9 0 0 0 0 255 0
-2.2 8 25.9 0 0 0 0 255 0
-2.16667 8.06667 25.9 0 0 0 0 255 0
-2.13333 8.26667 25.8 0 0 0 0 255 0
-2.13333 8.2 25.85 0 0 0 0 255 0
-2.56667 8.13333 25.25 0 0 0 0 255 0
-2.6 8 25.3 0 0 0 0 255 0
-2.6 7.93333 25.35 0 0 0 0 255 0
-2.53333 8.33333 25.15 0 0 0 0 255 0
-2.5 8.4 25.15 0 0 0 0 255 0
-2.43333 8.46667 25.1 0 0 0 0 255 0
-2.46667 8.4 25.2 0 0 0 0 255 0
-2.4 8.53333 25 0 0 0 0 255 0
-2.43333 8.53333 24.75 0 0 0 0 255 0
-2.36667 8.6 24.9 0 0 0 0 255 0
-2.46667 8.46667 24.75 0 0 0 0 255 0
-2.43333 8.46667 24.7 0 0 0 0 255 0
-2.4 8.6 24.75 0 0 0 0 255 0
-2.36667 8.6 24.8 0 0 0 0 255 0
-2.4 8.46667 24.65 0 0 0 0 255 0
-2.36667 8.46667 24.6 0 0 0 0 255 0
-2.33333 8.46667 24.55 0 0 0 0 255 0
-2.23333 8.53333 24.45 0 0 0 0 255 0
-2.16667 8.53333 24.35 0 0 0 0 255 0
-2.13333 8.53333 24.3 0 0 0 0 255 0
-2.1 8.53333 24.25 0 0 0 0 255 0
-2.03333 8.6 24.2 0 0 0 0 255 0
-1.96667 8.6 24.2 0 0 0 0 255 0
-1.9 8.6 24.2 0 0 0 0 255 0
-1.86667 8.53333 24.2 0 0 0 0 255 0
-1.8 8.46667 24.25 0 0 0 0 255 0
-1.7 8.33333 24.3 0 0 0 0 255 0
-1.66667 8.33333 24.35 0 0 0 0 255 0
-1.63333 8.33333 24.4 0 0 0 0 255 0
-1.6 8.33333 24.45 0 0 0 0 255 0
-1.56667 8.4 24.55 0 0 0 0 255 0
-1.53333 8.4 24.6 0 0 0 0 255 0
-1.5 8.4 24.65 0 0 0 0 255 0
-1.6 8.73333 24.75 0 0 0 0 255 0
-1.56667 8.66667 24.75 0 0 0 0 255 0
-1.5 8.53333 24.75 0 0 0 0 255 0
-1.46667 8.46667 24.75 0 0 0 0 255 0
-1.66667 8.8 24.7 0 0 0 0 255 0
-1.7 8.86667 24.7 0 0 0 0 255 0
-2.13333 8.73333 25.25 0 0 0 0 255 0
-2.1 8.73333 25.2 0 0 0 0 255 0
-2.13333 8.73333 25.15 0 0 0 0 255 0
-2.1 8.8 25.15 0 0 0 0 255 0
-2.06667 8.8 25.1 0 0 0 0 255 0
-2.03333 8.8 25.05 0 0 0 0 255 0
-1.93333 8.86667 24.95 0 0 0 0 255 0
-1.9 8.86667 24.9 0 0 0 0 255 0
-1.86667 8.86667 24.85 0 0 0 0 255 0
-1.83333 8.86667 24.8 0 0 0 0 255 0
-2.23333 8.6 25.3 0 0 0 0 255 0
-2.2 8.66667 25.3 0 0 0 0 255 0
-2.16667 8.4 25.65 0 0 0 0 255 0
-2.16667 8.46667 25.6 0 0 0 0 255 0
-2.2 8.46667 25.55 0 0 0 0 255 0
-2.2 8.53333 25.5 0 0 0 0 255 0
-2.2 8.6 25.45 0 0 0 0 255 0
-2.23333 8.6 25.4 0 0 0 0 255 0
3.36667 -1.33333 24.85 0 0 0 0 255 0
3.36667 -1.4 24.9 0 0 0 0 255 0
3.33333 -1.46667 25 0 0 0 0 255 0
3.36667 -1.53333 25 0 0 0 0 255 0
3.36667 -1.6 25.05 0 0 0 0 255 0
3.4 -1.66667 25.05 0 0 0 0 255 0
3.43333 -1.73333 25.05 0 0 0 0 255 0
3.43333 -1.8 25.1 0 0 0 0 255 0
3.46667 -1.86667 25.1 0 0 0 0 255 0
3.5 -1.93333 25.1 0 0 0 0 255 0
3.53333 -2 25.1 0 0 0 0 255 0
3.56667 -2.06667 25.1 0 0 0 0 255 0
3.63333 -2.13333 25.05 0 0 0 0 255 0
3.7 -2.2 25 0 0 0 0 255 0
3.73333 -2.2 24.95 0 0 0 0 255 0
3.76667 -2.2 24.9 0 0 0 0 255 0
3.36667 -1.26667 24.8 0 0 0 0 255 0
3.36667 -1.2 24.75 0 0 0 0 255 0
3.46667 -1.33333 24.7 0 0 0 0 255 0
3.8 -2.13333 24.8 0 0 0 0 255 0
3.53333 -1.4 24.65 0 0 0 0 255 0
